# .PCD v0.7 - Point Cloud Data file format
VERSION 0.7
FIELDS x y z
SIZE 4 4 4
TYPE F F F
COUNT 1 1 1
WIDTH 1463
HEIGHT 1
VIEWPOINT 0 0 0 1 0 0 0
POINTS 1463
DATA ascii
0.2305048 0.14287488 0.70390284
0.23170123 0.14282952 0.70367938
0.23296471 0.14282578 0.70366096
0.2341987 0.14280409 0.70355409
0.23547733 0.1428097 0.70358175
0.23677474 0.14282659 0.70366496
0.23805863 0.14283518 0.70370728
0.23934264 0.14284375 0.70374954
0.24065454 0.14286879 0.70387286
0.24197415 0.14289811 0.70401734
0.24331027 0.14293684 0.70420814
0.24467331 0.1429909 0.70447445
0.24604644 0.14305025 0.70476687
0.24745403 0.14312893 0.70515454
0.24886869 0.14321087 0.70555824
0.25032967 0.14331852 0.70608854
0.25183988 0.14345309 0.70675153
0.25337237 0.14359894 0.70747012
0.25496694 0.14377835 0.708354
0.25663921 0.14399956 0.70944387
0.25836346 0.14424759 0.71066582
0.26027888 0.14459938 0.71239895
0.26247817 0.14510465 0.71488827
0.20228319 0.15055175 0.73518956
0.20257905 0.14978972 0.73146832
0.20314242 0.14923407 0.72875494
0.20382202 0.14877041 0.72649074
0.20455872 0.14835408 0.72445768
0.20536076 0.14799014 0.72268039
0.20620197 0.14765882 0.72106254
0.20706677 0.14734846 0.71954691
0.20796756 0.14706741 0.71817446
0.20889857 0.14681107 0.7169227
0.20982514 0.14655478 0.71567118
0.21081878 0.14634821 0.71466237
0.21180175 0.14613678 0.7136299
0.2127867 0.14592925 0.7126165
0.21377341 0.14572541 0.71162111
0.21480142 0.14555201 0.7107743
0.21585639 0.14539881 0.7100262
0.21690032 0.14524004 0.70925087
0.21795622 0.14509109 0.70852351
0.2190333 0.1449579 0.70787311
0.2201414 0.14484666 0.70732987
0.22124973 0.14473686 0.70679367
0.22235911 0.14462899 0.70626694
0.22352172 0.14455678 0.70591432
0.22461018 0.1444377 0.70533282
0.22575878 0.14435843 0.70494568
0.22692825 0.14429331 0.70462769
0.22810736 0.14423501 0.70434302
0.22928824 0.14417848 0.70406693
0.23048618 0.14413323 0.70384598
0.23170482 0.14410135 0.70369029
0.23296662 0.14409651 0.70366669
0.23420103 0.14407489 0.70356107
0.23548351 0.1440829 0.70360023
0.23677526 0.14409648 0.70366651
0.2380576 0.1441042 0.70370424
0.23934737 0.14411633 0.70376343
0.24065945 0.14414167 0.70388722
0.24198286 0.14417352 0.70404273
0.24331863 0.14421235 0.70423234
0.24468669 0.14426981 0.70451295
0.24605983 0.14432967 0.70480525
0.24746595 0.14440815 0.70518851
0.24888431 0.14449294 0.70560253
0.25034267 0.14459996 0.70612514
0.25185284 0.14473568 0.70678794
0.25338328 0.14488162 0.70750058
0.25497448 0.14506067 0.70837498
0.25664997 0.14528564 0.70947355
0.25838009 0.14553915 0.71071154
0.26028159 0.14588623 0.7124064
0.26247519 0.14639281 0.71488017
0.20230487 0.15189448 0.73526835
0.20256945 0.1511023 0.73143369
0.2031348 0.15054327 0.72872764
0.203825 0.15008336 0.72650135
0.20454608 0.14965191 0.72441292
0.20534648 0.14928363 0.72263014
0.20619284 0.14895318 0.72103059
0.20705661 0.14863938 0.71951157
0.20796376 0.14836045 0.71816134
0.2088726 0.14808615 0.71683353
0.20982446 0.14784554 0.71566886
0.21080215 0.14762597 0.71460599
0.2117849 0.14741258 0.7135731
0.21278727 0.14721537 0.71261841
0.21380186 0.14702891 0.71171582
0.21482445 0.14685015 0.71085054
0.21587881 0.14669511 0.7101
0.21691149 0.14652723 0.70928741
0.21797615 0.14638281 0.7085883
0.2190426 0.14624128 0.70790315
0.22013973 0.14612173 0.7073245
0.22124122 0.14600645 0.70676649
0.22236069 0.14590429 0.70627195
0.22349492 0.14581293 0.70582968
0.22459878 0.1457029 0.70529705
0.22574839 0.14562361 0.70491326
0.22691905 0.14555871 0.70459914
0.22810525 0.14550446 0.70433652
0.22929309 0.14545184 0.70408183
0.2304942 0.14540818 0.70387048
0.23171753 0.14537895 0.70372891
0.23296218 0.14536332 0.70365328
0.23418404 0.14533372 0.70351005
0.2354794 0.14534982 0.70358795
0.23678106 0.1453696 0.70368373
0.23805311 0.14537109 0.70369095
0.23935311 0.14538956 0.70378029
0.240659 0.14541137 0.70388591
0.24198909 0.14544752 0.70406085
0.24333555 0.14549305 0.70428127
0.24470416 0.14555131 0.70456326
0.2460784 0.14561228 0.70485842
0.24746965 0.14568265 0.70519906
0.2488905 0.14576963 0.70562011
0.25035197 0.14587939 0.70615143
0.25186673 0.14601894 0.70682693
0.25340056 0.14616808 0.70754886
0.25499359 0.1463497 0.70842803
0.25666076 0.14657184 0.70950335
0.25840172 0.14683373 0.71077102
0.26029661 0.14718007 0.71244752
0.26246113 0.14767468 0.71484178
0.20225987 0.15318698 0.7351048
0.20255454 0.15241075 0.73137981
0.20312923 0.15185389 0.72870761
0.20383053 0.15139824 0.72652107
0.20453607 0.15095153 0.72437745
0.2053359 0.15057966 0.72259295
0.20618367 0.15024741 0.72099853
0.20705236 0.14993447 0.71949685
0.20796573 0.14965759 0.71816814
0.20887622 0.14938207 0.71684599
0.20981692 0.14913142 0.71564317
0.21078356 0.14890215 0.71454298
0.21177973 0.14869641 0.71355569
0.21276341 0.14848444 0.71253848
0.21379469 0.14830804 0.71169198
0.21481283 0.14812467 0.71081203
0.21585625 0.14796083 0.71002579
0.21689802 0.14779776 0.70924336
0.21795903 0.14764966 0.70853263
0.21904515 0.1475202 0.70791137
0.22014104 0.14739878 0.70732874
0.22123589 0.14727807 0.70674944
0.22235855 0.14717714 0.70626515
0.22348586 0.14708044 0.70580107
0.22461492 0.14698596 0.70534772
0.22574669 0.14689432 0.70490795
0.22692168 0.14683168 0.70460731
0.2281111 0.14677902 0.70435458
0.22930336 0.14672874 0.70411336
0.23050553 0.14668533 0.70390505
0.23172577 0.14665385 0.70375395
0.23295836 0.14663047 0.70364177
0.23419926 0.14661254 0.70355576
0.23549139 0.14662671 0.70362377
0.23678425 0.14664118 0.70369321
0.23805009 0.14663886 0.70368201
0.23935291 0.14665921 0.7037797
0.2406615 0.14668287 0.70389324
0.24200749 0.14672895 0.70411438
0.24335092 0.14677301 0.7043258
0.24471277 0.14682767 0.70458806
0.24608502 0.14688796 0.70487738
0.2474799 0.14696108 0.70522827
0.24890292 0.14705005 0.70565528
0.25036377 0.14716038 0.70618469
0.25188205 0.14730316 0.7068699
0.25342253 0.14745744 0.70761019
0.25501552 0.14764057 0.708489
0.25667718 0.14786142 0.70954877
0.25842336 0.14812852 0.71083057
0.26030332 0.1484693 0.71246582
0.2624388 0.14895174 0.71478099
0.20303026 0.15612558 0.74277538
0.20222266 0.15448485 0.73496956
0.20253794 0.15371773 0.7313199
0.20311335 0.15315667 0.72865063
0.2037947 0.15268221 0.7263934
0.20452166 0.15224776 0.72432643
0.20532443 0.15187488 0.72255254
0.20617248 0.15154003 0.72095942
0.20704222 0.15122519 0.71946156
0.20795916 0.15094855 0.71814543
0.20888598 0.15068246 0.71687949
0.209796 0.15040758 0.71557176
0.21077912 0.15018818 0.7145279
0.21177459 0.14998017 0.71353835
0.21277057 0.14977506 0.71256244
0.21377023 0.14957497 0.7116105
0.21480323 0.14940046 0.71078032
0.21585931 0.14924397 0.7100358
0.21690676 0.14908341 0.70927191
0.21796615 0.14893289 0.70855582
0.21904859 0.14879978 0.70792252
0.22013524 0.14867105 0.70731008
0.22122915 0.14854868 0.70672792
0.22233272 0.14843416 0.70618308
0.22344126 0.14832425 0.70566022
0.22460951 0.14825501 0.70533073
0.22572339 0.14815085 0.70483518
0.22692849 0.14810739 0.70462847
0.22811015 0.14804921 0.70435166
0.22929652 0.14799471 0.70409238
0.23050207 0.14795312 0.7038945
0.23172 0.14791989 0.70373642
0.23295932 0.1479006 0.70364463
0.23421803 0.14789377 0.70361215
0.23550865 0.14790705 0.70367533
0.23678425 0.1479108 0.70369321
0.23804826 0.14790732 0.70367658
0.23935254 0.14792876 0.70377862
0.24066666 0.14795603 0.70390832
0.2420152 0.14800404 0.70413679
0.24336337 0.14805134 0.7043618
0.24472308 0.14810513 0.70461774
0.24608803 0.14816153 0.70488602
0.24748145 0.1482344 0.70523268
0.24891748 0.1483319 0.70569658
0.25038776 0.14844872 0.70625234
0.25189945 0.14858879 0.70691878
0.25344637 0.14874811 0.70767677
0.25504273 0.14893474 0.70856458
0.25670099 0.14915544 0.70961457
0.25843596 0.14941831 0.7108652
0.26030725 0.14975701 0.71247661
0.26242742 0.15023486 0.71475005
0.20293012 0.15738805 0.74240905
0.2022042 0.15579668 0.73490244
0.20252945 0.15503068 0.73128921
0.20309891 0.15446033 0.72859883
0.20377281 0.15397625 0.72631538
0.2045224 0.15355515 0.72432905
0.20532373 0.15317802 0.72255009
0.20616652 0.15283638 0.72093856
0.20703842 0.15252046 0.71944839
0.20795116 0.15223838 0.71811777
0.20890611 0.15199052 0.71694857
0.20988435 0.15176253 0.71587312
0.21085073 0.15152881 0.71477067
0.21180896 0.15129212 0.71365416
0.2128123 0.15109031 0.71270221
0.21381091 0.15088758 0.71174592
0.21482784 0.15070012 0.71086168
0.21590437 0.15055646 0.71018404
0.21693306 0.15038133 0.70935792
0.21798873 0.15022683 0.70862919
0.21906403 0.15008761 0.70797241
0.2201422 0.14995193 0.70733243
0.22121434 0.14981374 0.7066806
0.22233345 0.14970876 0.7061854
0.22344336 0.14959884 0.70566684
0.22458756 0.14951298 0.70526183
0.22574037 0.14943376 0.70488822
0.22692214 0.14937451 0.70460874
0.2280909 0.1493074 0.70429218
0.22928697 0.14925884 0.70406306
0.23049404 0.1492179 0.70387
0.23171005 0.14918318 0.7037062
0.23296468 0.14917357 0.70366085
0.2342269 0.14916889 0.70363879
0.2355182 0.14918269 0.70370388
0.23678425 0.14918043 0.70369321
0.23804644 0.14917576 0.70367122
0.23935856 0.14920229 0.70379633
0.24067272 0.14922978 0.70392603
0.24201547 0.14927463 0.70413756
0.24336526 0.14932333 0.70436728
0.2447226 0.14937614 0.70461637
0.24610288 0.14944232 0.70492858
0.24748442 0.14950858 0.70524114
0.24894027 0.14961883 0.70576119
0.2504113 0.14973703 0.70631874
0.25191867 0.14987567 0.70697272
0.2534695 0.15003861 0.70774132
0.25506258 0.15022483 0.70861971
0.2567268 0.15045087 0.70968598
0.2584478 0.15070778 0.7108978
0.26032403 0.15105221 0.71252251
0.2624509 0.15153798 0.71481395
0.20283008 0.15864927 0.74204302
0.20217134 0.15709707 0.73478305
0.20251335 0.15633766 0.73123109
0.20308447 0.15576382 0.72854704
0.20376165 0.15527818 0.72627556
0.20450993 0.15485257 0.72428489
0.20531808 0.1544774 0.72253019
0.20616689 0.1541374 0.72093987
0.20703915 0.15381905 0.71945089
0.20794886 0.15353234 0.71810985
0.20886824 0.15325625 0.71681857
0.20982863 0.1530135 0.7156831
0.21080674 0.15278654 0.71462154
0.21180381 0.152576 0.71363682
0.21281523 0.15237828 0.71271199
0.21382567 0.15218224 0.71179509
0.21484983 0.15199824 0.71093446
0.21592255 0.15185057 0.71024382
0.21695444 0.15167612 0.70942783
0.2180156 0.15152404 0.70871651
0.21908656 0.15138051 0.70804518
0.22017348 0.1512496 0.70743293
0.22126298 0.15112197 0.70683599
0.22234491 0.15099066 0.70622182
0.2234616 0.15088432 0.70572442
0.22460631 0.15079799 0.70532066
0.22577059 0.15072572 0.70498258
0.22690578 0.15063493 0.70455796
0.22807628 0.15056846 0.70424706
0.22926758 0.15051639 0.70400351
0.23047854 0.15047772 0.70382267
0.23171784 0.15045789 0.70372987
0.23294714 0.1504318 0.70360786
0.234212 0.15042885 0.70359403
0.23550919 0.15044656 0.70367694
0.23676968 0.15044078 0.70364988
0.23804781 0.15044621 0.70367527
0.23936011 0.15047306 0.70380086
0.24067813 0.15050322 0.70394188
0.24201298 0.15054351 0.70413035
0.24336286 0.15059268 0.70436037
0.24472533 0.1506491 0.70462424
0.24610487 0.15071538 0.70493424
0.24749532 0.15078764 0.7052722
0.24895923 0.15090369 0.70581496
0.25043476 0.15102555 0.70638496
0.2519379 0.15116273 0.7070266
0.25348762 0.15132636 0.70779192
0.25507975 0.15151353 0.7086674
0.25675285 0.15174671 0.70975798
0.25846866 0.15200265 0.71095514
0.26034203 0.15234829 0.7125718
0.26247579 0.15284218 0.71488178
0.2027403 0.15991727 0.7417146
0.20211647 0.15837979 0.73458362
0.20251232 0.15765618 0.7312274
0.20309442 0.15708597 0.72858274
0.2037721 0.15659657 0.72631282
0.2045022 0.15615344 0.72425753
0.20530102 0.15576807 0.72247016
0.20615047 0.15542574 0.72088242
0.20702973 0.15511005 0.71941817
0.20794147 0.15482247 0.71808434
0.20886613 0.154548 0.71681136
0.20982839 0.15430456 0.71568227
0.210789 0.15406291 0.7145614
0.21177676 0.15384391 0.71354568
0.21277604 0.15363586 0.71258074
0.2138035 0.15345056 0.7117213
0.21482898 0.15326604 0.7108655
0.21588501 0.15310539 0.71012038
0.21692482 0.15293519 0.70933098
0.21798834 0.15278362 0.70862794
0.21905661 0.15263711 0.70794839
0.22015464 0.15251292 0.70737243
0.22123155 0.15237562 0.70673561
0.22233526 0.15225825 0.70619118
0.22347605 0.15216745 0.70577008
0.22463365 0.15208907 0.70540655
0.22580472 0.15202065 0.70508915
0.22696555 0.15194611 0.7047435
0.22815403 0.15189084 0.70448714
0.22932601 0.15182525 0.70418292
0.23055457 0.15179764 0.70405483
0.2317801 0.15176834 0.70391893
0.23301458 0.15174519 0.70381159
0.23424934 0.15172248 0.7037062
0.23549451 0.15170671 0.70363307
0.23676468 0.15170713 0.70363504
0.23805277 0.15171896 0.70368993
0.23935318 0.15173848 0.70378047
0.24067508 0.15177135 0.70393294
0.24201223 0.15181345 0.70412815
0.24336673 0.15186593 0.70437157
0.24472937 0.15192291 0.70463586
0.24611777 0.15199521 0.70497119
0.2475075 0.15206759 0.70530689
0.24897549 0.15218706 0.70586103
0.2504628 0.15231706 0.70646399
0.25195891 0.15245108 0.70708561
0.25350589 0.15261437 0.70784295
0.25509951 0.15280396 0.70872229
0.25677949 0.15304314 0.7098316
0.25849971 0.1533038 0.71104062
0.26037025 0.1536506 0.71264905
0.26250419 0.15414865 0.71495908
0.20265454 0.16118728 0.74140084
0.20209737 0.15969005 0.73451418
0.20252053 0.15898192 0.73125702
0.20309675 0.15840231 0.72859108
0.20377165 0.15790665 0.72631121
0.20449501 0.15745462 0.72423208
0.20529497 0.15706694 0.72244889
0.20614041 0.15671873 0.72084725
0.20702411 0.15640379 0.71939868
0.20793231 0.15611117 0.71805269
0.20885508 0.15583304 0.71677339
0.20981729 0.1555876 0.71564442
0.21078204 0.155347 0.7145378
0.21176797 0.15512487 0.71351606
0.21277064 0.1549176 0.71256268
0.21379177 0.15472618 0.71168226
0.21481599 0.15453927 0.71082252
0.21584584 0.1543586 0.70999151
0.21690422 0.15420035 0.70926362
0.21795993 0.15404207 0.70853555
0.2190388 0.1539019 0.70789087
0.22011594 0.15376215 0.70724809
0.2212159 0.15363987 0.7066856
0.22232915 0.15352815 0.70617181
0.22346115 0.1534306 0.70572305
0.22460073 0.15333931 0.70530319
0.2257635 0.15326481 0.70496047
0.22692463 0.15319002 0.70461649
0.22810966 0.15313211 0.70435011
0.22929966 0.15307817 0.70410204
0.23052639 0.1530492 0.70396876
0.23175262 0.15302022 0.70383549
0.23298483 0.15299548 0.7037217
0.23423176 0.15298064 0.7036534
0.23549047 0.15297359 0.70362103
0.23676947 0.15297975 0.70364928
0.23805742 0.15299158 0.7037037
0.23934628 0.15300386 0.70376021
0.2406822 0.15304594 0.70395374
0.24201731 0.15308706 0.70414293
0.24336495 0.15313564 0.70436639
0.24472946 0.15319428 0.7046361
0.24611337 0.1532644 0.70495862
0.24752067 0.15334828 0.70534444
0.2489913 0.15347034 0.70590585
0.2504811 0.15360291 0.70651567
0.2519764 0.1537375 0.70713466
0.25352457 0.15390283 0.70789516
0.25512445 0.15409772 0.70879155
0.25679308 0.154332 0.70986915
0.25852552 0.15460211 0.71111155
0.26039338 0.15495013 0.71271235
0.2625339 0.15545619 0.71504003
0.20258667 0.16247049 0.74115252
0.20209904 0.16101661 0.73452026
0.20251223 0.16029471 0.7312271
0.20309313 0.15971401 0.72857809
0.20375334 0.15920277 0.72624594
0.20446824 0.15874052 0.72413725
0.20528825 0.15836522 0.72242522
0.2061279 0.15800971 0.7208035
0.20701151 0.15769215 0.71935487
0.20792651 0.15740231 0.71803266
0.20884401 0.15711793 0.71673542
0.20981027 0.15687352 0.71562046
0.21077506 0.15663101 0.7145142
0.21175982 0.15640618 0.71348858
0.21276794 0.15620124 0.71255368
0.21378082 0.15600222 0.71164578
0.21481341 0.15581988 0.710814
0.21584879 0.15564172 0.71000123
0.2169164 0.15548874 0.70930344
0.21796936 0.15532713 0.70856619
0.21902357 0.15516829 0.70784163
0.22010641 0.15503147 0.70721745
0.22120546 0.15490757 0.70665222
0.2223274 0.15480103 0.70616621
0.22345212 0.15469763 0.7056945
0.22459677 0.15460911 0.70529073
0.22575867 0.1545334 0.70494539
0.22691819 0.15445691 0.70459646
0.22810867 0.15440224 0.70434707
0.22930291 0.15435071 0.70411199
0.23052563 0.15431881 0.70396644
0.2317486 0.15428743 0.70382327
0.23297462 0.1542584 0.70369089
0.23422602 0.1542464 0.70363617
0.23548435 0.15423907 0.70360273
0.23676249 0.15424474 0.70362854
0.23804684 0.15425435 0.70367241
0.2393447 0.15427257 0.70375556
0.2406653 0.15430519 0.70390433
0.24201466 0.15435581 0.70413524
0.24336347 0.15440553 0.70436209
0.24472137 0.15446049 0.70461279
0.24611056 0.15453455 0.70495057
0.24754021 0.15463309 0.70540011
0.24900842 0.15475459 0.70595437
0.25049669 0.15488726 0.7065596
0.25199682 0.15502588 0.70719194
0.25354248 0.15519099 0.70794511
0.25515223 0.15539347 0.7088688
0.25681221 0.15562436 0.70992208
0.25855687 0.15590401 0.71119779
0.26042551 0.1562553 0.71280032
0.26254842 0.15675494 0.71507955
0.2025369 0.16376746 0.74097043
0.20211756 0.16235673 0.73458761
0.20250641 0.16160935 0.73120606
0.20308138 0.16101922 0.72853601
0.20374547 0.16050687 0.72621787
0.20448291 0.16005851 0.72418922
0.20528521 0.15966627 0.72241455
0.20611806 0.15930261 0.72076911
0.2069993 0.15898065 0.71931243
0.20791388 0.15868816 0.71798903
0.20883368 0.15840325 0.71669996
0.20980242 0.15815875 0.7155937
0.2107681 0.15791494 0.71449059
0.21175714 0.15769149 0.71347958
0.21276307 0.15748324 0.71253735
0.21377242 0.15728001 0.71161783
0.21481039 0.15710014 0.71080399
0.21584994 0.15692355 0.71000499
0.21691224 0.15676549 0.70928985
0.21796884 0.15660517 0.70856452
0.21902026 0.15644304 0.70783097
0.22009756 0.15630117 0.70718902
0.22119731 0.15617678 0.70662618
0.22232409 0.1560728 0.70615572
0.22344938 0.15596893 0.70568585
0.2245916 0.15587802 0.70527446
0.22575219 0.1558008 0.70492512
0.22691692 0.1557273 0.70459253
0.2281083 0.1556728 0.70434594
0.2292996 0.15561885 0.70410186
0.23051734 0.15558334 0.70394117
0.23173794 0.15555012 0.7037909
0.23297358 0.15552732 0.70368773
0.23422246 0.15551355 0.70362544
0.23547825 0.15550451 0.70358449
0.23675911 0.15551201 0.70361847
0.23804268 0.15552121 0.70366013
0.23934534 0.15554273 0.70375746
0.24066241 0.15557332 0.70389587
0.24200948 0.1556229 0.70412016
0.24335243 0.1556693 0.70433015
0.24471302 0.15572646 0.70458877
0.24612108 0.15581308 0.70498067
0.24755926 0.15591779 0.70545441
0.24902546 0.15603897 0.70600271
0.2505081 0.15616918 0.70659184
0.2520144 0.15631272 0.7072413
0.25355887 0.15647839 0.70799088
0.2551758 0.15668689 0.70893425
0.25683713 0.15692043 0.70999092
0.25858945 0.15720698 0.71128738
0.26045647 0.15756008 0.71288502
0.2625899 0.15807009 0.71519256
0.20243895 0.16502449 0.74061215
0.20211156 0.16367722 0.73456573
0.20249242 0.16291735 0.73115551
0.20306775 0.16232276 0.72848707
0.2037296 0.16180453 0.7261613
0.2044647 0.16135074 0.72412473
0.20527379 0.16096072 0.72237438
0.20611106 0.16059758 0.72074461
0.20699261 0.16027327 0.71928918
0.20790124 0.15997384 0.7179454
0.20882806 0.15969205 0.71668071
0.20978689 0.15943803 0.71554071
0.21075438 0.15919366 0.71444404
0.21174759 0.15897159 0.71344739
0.21275257 0.15876098 0.71250218
0.21376395 0.15855765 0.71158963
0.21479641 0.15837228 0.71075773
0.21584573 0.15820147 0.70999116
0.21689962 0.15803601 0.70924854
0.21795596 0.15787426 0.70852268
0.21902232 0.15772161 0.70783758
0.22008719 0.15756968 0.7071557
0.22119094 0.15744716 0.70660585
0.2223137 0.1573395 0.7061227
0.22344567 0.15723954 0.70567411
0.22458835 0.15714821 0.70526427
0.2257476 0.15706946 0.70491081
0.22691543 0.15699752 0.70458794
0.22810812 0.15694347 0.70434541
0.22930002 0.15688948 0.70410311
0.2305129 0.15685037 0.70392758
0.23173369 0.15681705 0.70377803
0.23297252 0.15679622 0.70368451
0.23421887 0.15678065 0.70361465
0.23548187 0.15677634 0.70359534
0.23675698 0.15678009 0.70361215
0.23804633 0.15679319 0.70367092
0.23934731 0.15681376 0.70376325
0.24067013 0.15684834 0.70391846
0.24200305 0.15688911 0.70410144
0.24334176 0.15693319 0.70429927
0.24469362 0.15698525 0.70453292
0.24613306 0.15709268 0.705015
0.24757907 0.15720317 0.70551085
0.24903442 0.15731841 0.7060281
0.25051388 0.15744765 0.70660812
0.25203264 0.15760015 0.7072925
0.25358269 0.15777059 0.7080574
0.25520051 0.15798128 0.70900291
0.25686046 0.15821581 0.71005547
0.25860915 0.15850237 0.71134156
0.26048422 0.1588632 0.71296096
0.26262778 0.15938345 0.71529573
0.20238701 0.16631803 0.74042207
0.20209861 0.16499197 0.73451871
0.20247936 0.16422594 0.73110837
0.20305321 0.1636254 0.72843492
0.20371601 0.16310382 0.7261129
0.2044543 0.16264895 0.72408789
0.20526136 0.16225421 0.72233063
0.20610406 0.16189246 0.72072011
0.2069858 0.16156572 0.71926552
0.20789282 0.16126265 0.71791631
0.20882249 0.16098081 0.71666157
0.20977136 0.16071714 0.71548778
0.21074419 0.16047494 0.71440953
0.21173717 0.16025093 0.71341228
0.21274211 0.16003862 0.71246713
0.21375631 0.1598358 0.71156418
0.21479018 0.15965001 0.71073711
0.21584533 0.15948217 0.70998985
0.21689959 0.15931563 0.70924848
0.21795247 0.15915005 0.70851135
0.21902061 0.15899746 0.70783204
0.22008537 0.15884423 0.70714986
0.22118771 0.15871972 0.70659554
0.22230877 0.15860997 0.70610702
0.22344716 0.1585138 0.70567882
0.22458544 0.15841863 0.70525515
0.22574842 0.15834185 0.70491338
0.22691597 0.15826912 0.70458961
0.22810359 0.15821113 0.7043314
0.22929913 0.15815923 0.70410037
0.23051234 0.15812004 0.70392585
0.23173314 0.15808645 0.70377636
0.23296927 0.15806362 0.70367473
0.23421638 0.15804845 0.7036072
0.23548599 0.15804854 0.70360762
0.23675686 0.15804948 0.70361179
0.23804872 0.15806435 0.70367795
0.23934469 0.15808177 0.7037555
0.2406666 0.15811606 0.70390815
0.2419966 0.15815526 0.70408267
0.24335147 0.15821023 0.7043274
0.24469818 0.15825933 0.70454603
0.24614078 0.15836965 0.70503712
0.24758159 0.15847766 0.70551801
0.24904446 0.15859865 0.70605659
0.25052625 0.15873037 0.70664299
0.25205329 0.15888929 0.70735049
0.25359973 0.15905876 0.70810497
0.25521991 0.15927257 0.70905679
0.25688878 0.15951449 0.71013373
0.25863564 0.15980218 0.71141452
0.2605139 0.16016781 0.71304226
0.26266593 0.16069734 0.71539962
0.20233507 0.1676109 0.74023211
0.20208524 0.16630621 0.73447013
0.20246531 0.16553353 0.73105764
0.20303866 0.16492784 0.72838271
0.20370355 0.16440384 0.7260685
0.2044439 0.16394703 0.72405106
0.20525087 0.16354911 0.72229373
0.20609701 0.16318722 0.7206955
0.20697528 0.16285516 0.71922898
0.20788383 0.16255091 0.71788532
0.2088169 0.16226947 0.71664238
0.20976469 0.16200289 0.71546501
0.2107376 0.16175883 0.71438718
0.21172675 0.16153014 0.71337718
0.21273305 0.1613172 0.7124368
0.21375054 0.16111527 0.71154499
0.2147918 0.16093355 0.71074247
0.21584068 0.16075967 0.70997453
0.21689169 0.16058941 0.70922261
0.21794422 0.16042228 0.70848447
0.21901289 0.1602689 0.70780712
0.2200796 0.16011588 0.70713133
0.22118162 0.15999016 0.70657605
0.22230347 0.15988015 0.70609021
0.2234434 0.15978432 0.70566696
0.22458239 0.15968889 0.70524555
0.22575246 0.15961653 0.70492595
0.22692126 0.15954408 0.704606
0.22810113 0.15948018 0.70432383
0.22930036 0.15943044 0.70410419
0.23051092 0.15938909 0.70392156
0.23173256 0.15935582 0.70377457
0.23296607 0.15933101 0.70366502
0.23421665 0.15931809 0.70360798
0.23548228 0.1593155 0.70359653
0.23675521 0.15931785 0.7036069
0.23804355 0.15933049 0.70366269
0.23933852 0.1593474 0.70373738
0.24065782 0.15938024 0.70388246
0.24198487 0.15941785 0.70404857
0.24333967 0.15947326 0.70429325
0.24470428 0.15953448 0.70456362
0.24613895 0.15964051 0.70503187
0.24757735 0.15974785 0.70550597
0.2490558 0.1598798 0.70608872
0.25054535 0.16001751 0.70669687
0.25205868 0.16016893 0.70736557
0.25362074 0.16034964 0.70816368
0.2552394 0.16056412 0.70911092
0.25692114 0.16081598 0.7102232
0.25866675 0.1611051 0.71150005
0.26055151 0.1614776 0.71314514
0.26270312 0.16201103 0.71550095
0.20228317 0.16890311 0.74004221
0.20206502 0.16761459 0.73439664
0.20244943 0.16683944 0.7310003
0.20302412 0.1662301 0.72833055
0.20369147 0.16570398 0.7260254
0.20443584 0.16524686 0.72402251
0.2052404 0.16484387 0.72225684
0.20608476 0.16447774 0.72065264
0.20696293 0.16414301 0.71918607
0.20787205 0.16383685 0.71784461
0.20881106 0.16355789 0.71662235
0.20976242 0.16329198 0.71545726
0.21072507 0.16303805 0.71434468
0.2117193 0.1628115 0.71335208
0.21272565 0.16259696 0.71241206
0.21374464 0.16239457 0.71152532
0.21478161 0.1622082 0.71070874
0.21582788 0.16203102 0.70993245
0.21687695 0.16185802 0.70917445
0.21793595 0.16169441 0.70845759
0.21900509 0.1615402 0.70778191
0.22007513 0.16138843 0.70711696
0.22118036 0.16126406 0.70657206
0.22229779 0.16114996 0.70607215
0.22343726 0.16105308 0.70564759
0.22457926 0.16095906 0.70523572
0.22574928 0.16088611 0.70491606
0.2269181 0.16081311 0.70459622
0.22809987 0.16075005 0.70431989
0.22930148 0.16070159 0.70410758
0.23050956 0.16065818 0.70391738
0.23173144 0.1606248 0.70377117
0.23296462 0.16059959 0.70366067
0.2342169 0.16058774 0.70360875
0.23547915 0.16058281 0.70358717
0.23675428 0.16058668 0.70360416
0.23803933 0.16059721 0.70365024
0.23933648 0.16061573 0.70373136
0.24064919 0.16064446 0.70385724
0.24198192 0.16068617 0.70403999
0.24334757 0.16074917 0.70431608
0.24472047 0.16081631 0.70461023
0.24615797 0.16092497 0.70508635
0.2475971 0.16103359 0.70556223
0.24906164 0.16115753 0.70610529
0.25056773 0.16130698 0.70676005
0.25206605 0.16144989 0.70738626
0.25363776 0.16163817 0.70821118
0.25526166 0.16185763 0.70917279
0.25694513 0.1621125 0.71028948
0.2587015 0.16241062 0.71159565
0.26058483 0.16278508 0.71323633
0.2627385 0.16332392 0.71559727
0.2022288 0.17019255 0.73984331
0.202044 0.16892204 0.73432022
0.20243543 0.1681467 0.73094976
0.20301108 0.16753341 0.72828376
0.2036808 0.16700515 0.72598737
0.20442899 0.16654758 0.72399825
0.20523101 0.16613939 0.72222382
0.20607284 0.16576837 0.72061098
0.20695059 0.16543072 0.71914315
0.20786273 0.1651246 0.71781242
0.20879386 0.16483726 0.71656334
0.20975621 0.16457796 0.7154361
0.21071169 0.16431645 0.71429932
0.21171348 0.16409403 0.71333247
0.21271844 0.16387674 0.71238786
0.21373871 0.16367379 0.71150559
0.21477382 0.16348456 0.71068299
0.21582176 0.16330726 0.7099123
0.21686919 0.1631317 0.70914906
0.2179307 0.16296871 0.70844054
0.21899976 0.16281323 0.70776469
0.22007762 0.16266607 0.70712495
0.22118451 0.16254193 0.70658529
0.22229923 0.16242494 0.70607674
0.22343102 0.16232167 0.70562786
0.2245761 0.1622292 0.70522583
0.22574595 0.16215554 0.70490563
0.22691433 0.16208166 0.70458448
0.22809725 0.16201892 0.70431179
0.22929864 0.16196996 0.70409888
0.23050655 0.16192609 0.70390821
0.23172821 0.16189231 0.70376134
0.23296012 0.16186602 0.70364708
0.23421326 0.1618547 0.70359784
0.23547591 0.16185002 0.70357752
0.23675333 0.16185549 0.7036013
0.23803513 0.16186388 0.70363778
0.23934193 0.16188911 0.70374739
0.24065293 0.16191688 0.70386815
0.24198398 0.16195779 0.70404595
0.24335021 0.16202167 0.70432371
0.24473155 0.16209492 0.70464212
0.24616487 0.16220166 0.70510614
0.24760497 0.16231173 0.70558465
0.24906577 0.16243419 0.70611697
0.25056171 0.16257821 0.706743
0.25208071 0.16273564 0.70742738
0.25365269 0.16292554 0.70825291
0.25528607 0.16315275 0.70924062
0.25696611 0.16340737 0.71034747
0.25873271 0.16371424 0.71168149
0.26062775 0.16409895 0.71335381
0.2627902 0.16464743 0.71573812
0.20221519 0.17151585 0.73979354
0.20201179 0.17021976 0.73420316
0.2024236 0.16945559 0.73090702
0.20299727 0.16883592 0.72823423
0.2036705 0.16830648 0.72595066
0.2044147 0.16784211 0.72394764
0.20522197 0.16743506 0.72219199
0.20606093 0.16705886 0.72056931
0.20693855 0.16671851 0.71910131
0.20785509 0.16641358 0.71778601
0.20878522 0.16612323 0.71653366
0.20973897 0.16585512 0.71537727
0.21070294 0.16559833 0.7142697
0.21170558 0.16537488 0.71330583
0.21271032 0.16515575 0.71236068
0.2137329 0.16495302 0.71148628
0.21477342 0.16476646 0.71068162
0.21581973 0.16458656 0.70990562
0.2168745 0.16441518 0.70916641
0.21792865 0.16424534 0.70843387
0.21899909 0.16408969 0.70776254
0.22007866 0.16394265 0.70712829
0.22118577 0.1638177 0.70658934
0.22230098 0.16370015 0.70608228
0.22343124 0.16359496 0.70562857
0.22457276 0.16349915 0.70521533
0.22574219 0.16342463 0.70489389
0.22691055 0.16335016 0.70457274
0.22809421 0.16328751 0.70430243
0.22929402 0.16323702 0.70408469
0.23050284 0.16319348 0.70389688
0.23172569 0.16316028 0.70375371
0.23295434 0.16313151 0.70362961
0.23420842 0.16312078 0.7035833
0.23546951 0.16311499 0.70355839
0.23674697 0.16312057 0.70358241
0.23803315 0.16313206 0.70363194
0.23933648 0.16315509 0.70373136
0.240647 0.1631828 0.70385081
0.24199338 0.16323438 0.70407331
0.24334817 0.16329107 0.70431781
0.24472564 0.16336231 0.70462513
0.24616057 0.16347097 0.7050938
0.24759954 0.16358119 0.70556921
0.24907015 0.16371107 0.70612943
0.25056836 0.16385768 0.70676178
0.25209534 0.16402152 0.70746845
0.25367031 0.16421479 0.70830208
0.2553106 0.16444817 0.70930874
0.25698704 0.16470242 0.71040535
0.25875854 0.16501476 0.71175253
0.26066992 0.16541277 0.71346927
0.26284203 0.1659715 0.71587926
0.20220499 0.17284188 0.73975617
0.2019718 0.17151049 0.73405784
0.20240422 0.17075795 0.73083705
0.20297943 0.17013486 0.72817022
0.20365283 0.16960156 0.72588772
0.20440678 0.16914172 0.72391963
0.20520972 0.16872799 0.7221489
0.20604905 0.16834922 0.72052777
0.20693083 0.16800967 0.71907449
0.20784645 0.16770166 0.71775621
0.20877625 0.16740882 0.7165029
0.20973395 0.16714182 0.71536016
0.21070065 0.16688521 0.71426189
0.21169403 0.16665274 0.71326691
0.21270119 0.16643386 0.7123301
0.21372262 0.1662287 0.71145201
0.21475895 0.16603751 0.71063375
0.21580288 0.16585444 0.70985019
0.21686558 0.16568786 0.70913726
0.21792172 0.16551825 0.70841134
0.21899384 0.1653627 0.70774555
0.22007501 0.16521573 0.70711654
0.22117792 0.16508669 0.70656425
0.22229777 0.16497169 0.70607209
0.22342841 0.16486599 0.70561963
0.22457053 0.16476987 0.7052083
0.2257372 0.16469277 0.70487833
0.22690567 0.16461784 0.7045576
0.22809327 0.16455753 0.70429951
0.2292894 0.16450404 0.70407051
0.23049913 0.16446082 0.70388556
0.23172367 0.16442858 0.70374757
0.23294851 0.16439691 0.70361203
0.23420626 0.16438867 0.7035768
0.23546733 0.16438286 0.70355189
0.23673849 0.1643841 0.70355719
0.23803554 0.16440322 0.70363903
0.23933256 0.16442209 0.70371985
0.2406535 0.16445714 0.70386982
0.24199846 0.16450813 0.70408809
0.24334981 0.16456293 0.70432258
0.24472341 0.16463211 0.70461869
0.24615666 0.1647405 0.7050826
0.24759912 0.16485392 0.70556802
0.2490776 0.16499002 0.70615053
0.25057173 0.16513507 0.70677131
0.25209862 0.16530012 0.70747769
0.25369275 0.16550736 0.70836473
0.25533345 0.16574277 0.70937228
0.25702131 0.16600628 0.71050006
0.25879058 0.1663195 0.71184069
0.26070681 0.16672361 0.71357024
0.26290813 0.16730519 0.71605933
0.20215058 0.17412971 0.73955715
0.2019822 0.17284378 0.73409563
0.20239349 0.17206743 0.7307983
0.2029642 0.17143579 0.72811562
0.20363051 0.17089249 0.72580814
0.20440307 0.17044473 0.72390646
0.20519695 0.17002033 0.72210395
0.20604424 0.16964526 0.72051096
0.20692335 0.16930091 0.7190485
0.20783667 0.16898869 0.71772242
0.20876403 0.16869168 0.71646094
0.20971985 0.16842116 0.71531206
0.21069835 0.16817208 0.71425414
0.21168247 0.16793047 0.71322799
0.21269543 0.16771454 0.71231085
0.21371235 0.16750428 0.71141785
0.21474865 0.16731162 0.71059966
0.21578549 0.16712169 0.70979297
0.21684891 0.16695446 0.70908272
0.21791486 0.16679114 0.70838904
0.2189907 0.16663724 0.70773542
0.22007252 0.16648965 0.70710856
0.22117274 0.16635759 0.70654768
0.22229514 0.16624364 0.70606375
0.223426 0.16613728 0.705612
0.22457182 0.16604319 0.70521241
0.22573209 0.16596077 0.70486236
0.22690961 0.1658919 0.70456982
0.22809991 0.16583309 0.70432001
0.22928938 0.16577432 0.70407045
0.2304969 0.16572917 0.7038787
0.23172145 0.16569671 0.70374084
0.23294558 0.16566429 0.70360315
0.23420365 0.16565624 0.70356894
0.23546495 0.16565053 0.70354474
0.23673479 0.16565089 0.70354623
0.23803706 0.16567379 0.7036435
0.23933616 0.16569427 0.70373046
0.24064983 0.16572456 0.70385909
0.24199378 0.16577527 0.7040745
0.24335487 0.16583714 0.70433724
0.24474044 0.16591495 0.70466775
0.24615394 0.1660108 0.70507479
0.24760312 0.1661296 0.7055794
0.24908277 0.16626753 0.70616519
0.25058386 0.16641828 0.70680547
0.25210127 0.16657831 0.70748514
0.25371003 0.16679676 0.70841295
0.25534704 0.16703153 0.70941001
0.25703993 0.1673003 0.71055156
0.25882345 0.16762511 0.71193111
0.26076105 0.16804601 0.71371871
0.26298195 0.16864446 0.71626037
0.20206608 0.17539069 0.73924798
0.20198879 0.17417394 0.73411953
0.20237896 0.17337351 0.73074585
0.20294291 0.17273134 0.72803921
0.2036491 0.17221773 0.72587442
0.20437822 0.17172994 0.72381842
0.20519358 0.17132035 0.72209209
0.20604497 0.17094582 0.72051352
0.20692265 0.17059767 0.71904606
0.20782447 0.17027363 0.71768028
0.2087518 0.16997437 0.71641898
0.20970286 0.16969801 0.71525413
0.21068604 0.16945086 0.71421242
0.21167237 0.16920923 0.71319395
0.21268962 0.16899508 0.71229136
0.2137042 0.1687814 0.71139073
0.21474336 0.16858956 0.7105822
0.21578173 0.16839939 0.70978063
0.21684244 0.16822881 0.70906162
0.21790652 0.16806279 0.70836192
0.21898003 0.16790597 0.70770091
0.22007176 0.16776484 0.70710611
0.22117187 0.1676317 0.70654494
0.22229287 0.16751583 0.70605654
0.22342356 0.16740854 0.70560431
0.22457312 0.16731653 0.70521647
0.22573042 0.16723128 0.70485717
0.22691053 0.16716377 0.70457268
0.22809744 0.16710202 0.70431238
0.22928348 0.16704032 0.70405233
0.23049331 0.16699652 0.70386773
0.23171802 0.16696393 0.7037304
0.23294444 0.16693294 0.70359975
0.2341986 0.16692205 0.7035538
0.23545985 0.16691628 0.70352954
0.23673201 0.16691828 0.70353794
0.23803464 0.16694163 0.70363635
0.23934264 0.16696848 0.70374954
0.24065122 0.16699544 0.70386314
0.24200253 0.16705161 0.70409995
0.24336046 0.16711175 0.70435339
0.24475448 0.16719592 0.70470816
0.2461476 0.1672786 0.70505667
0.24760009 0.16740057 0.70557076
0.24906202 0.16752765 0.70610636
0.25057271 0.16768606 0.70677406
0.25210974 0.1678604 0.70750886
0.25371471 0.16807801 0.708426
0.25535756 0.16831839 0.70943922
0.25706255 0.16859713 0.71061409
0.25885791 0.16893208 0.71202582
0.26081905 0.16937138 0.71387744
0.26305869 0.16998632 0.71646935
0.20207784 0.17673475 0.73929101
0.20196812 0.1754805 0.73404443
0.20233744 0.17465609 0.73059595
0.20290525 0.1740126 0.72790414
0.20362537 0.17350714 0.72578979
0.20436466 0.1730244 0.72377044
0.20518346 0.17261466 0.72205651
0.20604599 0.17224663 0.72051704
0.20692463 0.17189664 0.71905297
0.20782091 0.17156555 0.717668
0.20874089 0.171258 0.71638155
0.20969155 0.17097928 0.71521556
0.21068107 0.17073542 0.71419555
0.21166046 0.17048639 0.71315384
0.21268223 0.1702743 0.71226662
0.21369834 0.17006025 0.71137124
0.21472831 0.16985971 0.71053237
0.21577451 0.16967431 0.70975685
0.21683466 0.16950202 0.70903617
0.21789999 0.16933577 0.7083407
0.21896967 0.16917482 0.70766747
0.22007117 0.16904017 0.70710421
0.22117284 0.16890721 0.70654804
0.22229612 0.16879217 0.70606685
0.22342114 0.16867979 0.70559669
0.22457401 0.16858956 0.70521927
0.22572821 0.16850135 0.70485026
0.22690231 0.16842888 0.70454717
0.2280892 0.16836667 0.70428693
0.22927798 0.16830656 0.70403546
0.2304889 0.16826324 0.70385426
0.23171459 0.16823113 0.70371997
0.23294467 0.16820255 0.70360041
0.23419675 0.16819009 0.70354825
0.23545896 0.16818497 0.70352685
0.23673476 0.16818957 0.70354611
0.23802599 0.16820504 0.70361078
0.23933892 0.16823559 0.70373857
0.24066485 0.16827489 0.70390302
0.24201114 0.16832796 0.70412499
0.24336156 0.16838333 0.70435661
0.24473517 0.16845408 0.70465255
0.24614918 0.16855177 0.7050612
0.24760227 0.16867507 0.70557696
0.24906084 0.16880083 0.70610303
0.25057906 0.16896552 0.70679194
0.25212738 0.16914874 0.70755839
0.25371897 0.16935901 0.70843792
0.25537902 0.16961263 0.70949882
0.25708559 0.16989446 0.71067774
0.25889459 0.17024085 0.71212673
0.26086664 0.17069051 0.71400768
0.26311868 0.17131805 0.71663272
0.20213915 0.17812262 0.73951536
0.20198931 0.17682342 0.73412144
0.20231919 0.17595838 0.73053002
0.20292588 0.17534372 0.72797811
0.20360476 0.17479894 0.72571635
0.20437129 0.1743359 0.72379392
0.20515718 0.17389514 0.721964
0.20597531 0.1734871 0.72026992
0.20688395 0.17315991 0.71891159
0.20781364 0.17285433 0.7176429
0.20873611 0.17254657 0.7163651
0.20969802 0.17227499 0.71523762
0.21065564 0.17200324 0.71410936
0.21164417 0.17175986 0.71309894
0.21267179 0.17155096 0.71223164
0.21369249 0.17133902 0.71135175
0.21471325 0.17112966 0.71048254
0.21576814 0.17094983 0.70973593
0.21682745 0.17077561 0.70901257
0.21789412 0.17060918 0.70832163
0.21896996 0.17045183 0.70766836
0.22006762 0.17031321 0.70709282
0.22117415 0.17018299 0.70655221
0.22229534 0.17006549 0.7060644
0.22341923 0.16995139 0.70559067
0.22457182 0.16986027 0.70521241
0.22572599 0.16977139 0.70484334
0.22689717 0.1696962 0.70453119
0.22808091 0.16963121 0.70426136
0.22927453 0.16957425 0.70402485
0.2304845 0.16952991 0.70384085
0.23171058 0.16949788 0.70370781
0.23294489 0.16947216 0.70360106
0.23419563 0.16945863 0.70354486
0.23545259 0.16944972 0.70350784
0.23673549 0.16945946 0.70354831
0.23802222 0.16947182 0.70359963
0.23933503 0.16950253 0.70372713
0.24065587 0.16953856 0.70387673
0.24199595 0.1695877 0.70408076
0.24336204 0.16965447 0.70435798
0.24473591 0.16972594 0.70465469
0.24616115 0.16983211 0.70509547
0.24761213 0.16995487 0.70560509
0.24908139 0.17008883 0.70616126
0.25058806 0.17024684 0.70681733
0.25214505 0.17043729 0.70760798
0.25372326 0.17064008 0.7084499
0.25540048 0.1709071 0.70955849
0.25711554 0.17119664 0.71076059
0.25893846 0.17155476 0.71224743
0.26091531 0.17201082 0.71414089
0.26319218 0.17265925 0.71683294
0.20197469 0.17931086 0.73891366
0.2019701 0.17813101 0.73405164
0.20230071 0.17726023 0.73046333
0.20293416 0.17666437 0.72800785
0.2036065 0.17610981 0.72572255
0.20431885 0.17559671 0.7236082
0.20515263 0.17519383 0.72194797
0.2060129 0.17481853 0.72040141
0.2068799 0.17445359 0.71889752
0.20780192 0.17413931 0.71760243
0.20873335 0.17383675 0.71635568
0.20970654 0.1735725 0.7152667
0.21063593 0.17327544 0.71404254
0.2116252 0.17303094 0.71303505
0.21264443 0.17281376 0.71214002
0.2136749 0.17260826 0.71129322
0.21470842 0.17240766 0.71046656
0.21574481 0.17221172 0.70965916
0.21681154 0.17204219 0.70896053
0.21788967 0.17188364 0.70830715
0.21897143 0.17172977 0.70767313
0.22006454 0.17158656 0.70708293
0.22117656 0.17145965 0.70655996
0.22229119 0.17133619 0.70605117
0.22341743 0.17122304 0.70558494
0.22456893 0.17113043 0.70520329
0.22572358 0.17104125 0.70483577
0.22689423 0.17096512 0.70452207
0.22807267 0.17089568 0.70423591
0.22927108 0.17084189 0.70401424
0.23048007 0.17079653 0.70382732
0.23170575 0.17076397 0.70369315
0.23294193 0.17073944 0.70359212
0.23419213 0.17072544 0.70353436
0.23544519 0.17071363 0.70348573
0.23672481 0.17072111 0.70351654
0.23802197 0.1707411 0.70359892
0.23933592 0.17077285 0.70372975
0.24065618 0.17080875 0.70387769
0.24200356 0.1708634 0.70410293
0.24337019 0.17093103 0.70438159
0.24475202 0.17100856 0.70470107
0.24617314 0.1711126 0.7051298
0.24762265 0.1712352 0.70563507
0.249097 0.17137365 0.70620555
0.25059998 0.17153028 0.70685101
0.2521643 0.17172709 0.70766205
0.25375789 0.17194176 0.70854664
0.25541663 0.17219818 0.70960331
0.25714079 0.17249595 0.71083039
0.25898343 0.17286985 0.71237117
0.260952 0.17332368 0.71424133
0.2632924 0.17401882 0.71710593
0.20191973 0.18059488 0.73871261
0.20191008 0.17940207 0.73383349
0.20228684 0.1785659 0.7304132
0.20291682 0.17796265 0.72794563
0.20360868 0.17742106 0.7257303
0.20432752 0.17690977 0.72363889
0.20516407 0.17650624 0.72198826
0.20600279 0.17610964 0.720366
0.20686275 0.17573607 0.71883792
0.20772864 0.17537215 0.71734935
0.20869841 0.17509991 0.71623576
0.20970526 0.17486192 0.71526229
0.21063678 0.17456442 0.71404541
0.2116209 0.17431387 0.7130205
0.21264158 0.17409629 0.71213049
0.2136739 0.17389078 0.71128988
0.21472171 0.17370026 0.71051055
0.21574825 0.17349488 0.70967048
0.21677694 0.17329367 0.7088474
0.21788338 0.17315659 0.7082867
0.21897165 0.17300676 0.70767385
0.22006287 0.17286098 0.70707756
0.22117153 0.17273051 0.70654386
0.22228774 0.17260739 0.70604026
0.2234156 0.17249466 0.70557916
0.224566 0.17240053 0.70519412
0.22572178 0.17231156 0.70483017
0.22689027 0.17223324 0.70450979
0.22806993 0.1721642 0.70422745
0.22926714 0.17210913 0.70400214
0.23047595 0.17206331 0.70381474
0.23170015 0.17202944 0.70367616
0.2329378 0.17200585 0.70357966
0.23418839 0.17199202 0.7035231
0.23544846 0.17198527 0.7034955
0.23672041 0.17198722 0.70350349
0.23802817 0.17201503 0.70361722
0.23933631 0.17204282 0.70373088
0.24066554 0.17208539 0.70390505
0.24200132 0.17213218 0.70409644
0.24337098 0.17220244 0.70438385
0.24476048 0.17228596 0.70472544
0.24618496 0.17239308 0.70516366
0.24763146 0.17251447 0.70566016
0.24911019 0.17265694 0.70624292
0.25061473 0.17281576 0.70689255
0.25218692 0.17301938 0.70772547
0.25378981 0.17324191 0.70863575
0.255431 0.17348821 0.70964324
0.25715813 0.17379016 0.71087831
0.2590006 0.17416665 0.71241832
0.26101276 0.17465299 0.71440768
0.26338145 0.17537192 0.7173484
0.20193794 0.18194409 0.73877925
0.20189345 0.18071118 0.73377305
0.2022371 0.17983951 0.73023361
0.20290349 0.17926425 0.72789782
0.20357001 0.1786965 0.72559249
0.20433959 0.1782259 0.72368163
0.20518444 0.17782652 0.72205997
0.20597768 0.17738771 0.7202782
0.20689219 0.17705822 0.71894026
0.20773147 0.17666882 0.71735913
0.20866919 0.17636745 0.71613544
0.209677 0.17612869 0.71516591
0.21061578 0.17583519 0.71397424
0.21160862 0.17559013 0.71297914
0.21264598 0.17538475 0.71214521
0.21367636 0.17517611 0.71129805
0.21471407 0.17497593 0.71048522
0.21572553 0.17475687 0.70959574
0.21673881 0.17454188 0.70872271
0.21783319 0.17439431 0.70812356
0.21899474 0.17430194 0.70774847
0.22008066 0.17415078 0.70713472
0.22116804 0.17400253 0.70653272
0.22228391 0.17387825 0.7060281
0.22341353 0.17376608 0.70557261
0.22456405 0.17367135 0.70518798
0.22571996 0.17358184 0.70482451
0.22688693 0.17350177 0.70449942
0.22807029 0.17343508 0.70422858
0.22926302 0.17337619 0.70398951
0.23047492 0.17333238 0.70381159
0.23169458 0.17329486 0.70365924
0.23293366 0.17327218 0.70356715
0.23418434 0.17325833 0.70351094
0.23544498 0.17325196 0.70348507
0.23671715 0.1732541 0.70349377
0.23801789 0.17327702 0.70358682
0.23933272 0.17330991 0.70372033
0.24066027 0.17335159 0.70388961
0.2419998 0.17340145 0.70409203
0.24337685 0.17347749 0.70440084
0.24478605 0.17357557 0.70479906
0.24621952 0.17368974 0.70526266
0.24764113 0.17379442 0.7056877
0.2491217 0.17393918 0.70627552
0.25063664 0.17410636 0.70695436
0.252195 0.17430186 0.70774817
0.25379136 0.17452152 0.7086401
0.25544542 0.17477845 0.7096833
0.25717759 0.17508599 0.71093208
0.25902268 0.17546697 0.71247905
0.26106089 0.17597437 0.71453935
0.26348218 0.17673375 0.71762276
0.20186803 0.18321355 0.73852342
0.20188858 0.18203068 0.73375535
0.20227039 0.18118684 0.73035383
0.20288697 0.18056282 0.72783852
0.20349574 0.17993997 0.72532779
0.20431586 0.17951074 0.72359759
0.20516822 0.17911512 0.72200286
0.20597279 0.17868301 0.7202611
0.20682506 0.17829746 0.71870697
0.20779362 0.17801633 0.71757376
0.20869094 0.17767805 0.71621013
0.20968679 0.17742728 0.71519929
0.21060386 0.17711334 0.71393383
0.21159637 0.17686626 0.71293789
0.21266289 0.17668366 0.71220183
0.2136654 0.1764504 0.71126157
0.2146979 0.17624454 0.71043175
0.21573597 0.17604567 0.70963013
0.21676798 0.17584424 0.70881814
0.2177957 0.17564169 0.70800167
0.21895912 0.17555033 0.70763338
0.22008915 0.17543338 0.70716202
0.22116937 0.17527832 0.70653695
0.22227761 0.17514712 0.70600808
0.22340773 0.17503454 0.70555431
0.22455822 0.17493913 0.70516968
0.22571513 0.17484975 0.70480943
0.22688656 0.17477255 0.70449823
0.22807066 0.17470594 0.70422971
0.22925891 0.17464322 0.70397687
0.23047391 0.17460144 0.70380849
0.23169319 0.17456336 0.703655
0.23292965 0.17453857 0.70355505
0.23418029 0.17452461 0.70349878
0.23544288 0.17451966 0.70347881
0.23671828 0.1745242 0.70349717
0.23802365 0.17455068 0.70360386
0.23933302 0.17457978 0.70372123
0.24066526 0.17462519 0.70390421
0.24202828 0.17469233 0.70417488
0.24339312 0.17476007 0.70444793
0.24478488 0.17484634 0.70479566
0.24620464 0.17495161 0.70522004
0.2476477 0.17507228 0.70570642
0.24912933 0.17521884 0.70629716
0.25064513 0.17538781 0.70697832
0.25219825 0.17558107 0.70775729
0.25380507 0.17580955 0.70867831
0.25546005 0.17606896 0.70972401
0.2572059 0.17638808 0.71101034
0.25905395 0.17677379 0.71256506
0.26110625 0.17729437 0.71466357
0.263583 0.17809664 0.71789742
0.20183727 0.18330796 0.73356891
0.20228228 0.18251528 0.73039675
0.20288756 0.18187656 0.72784066
0.20356369 0.18130913 0.72556996
0.2043138 0.18081446 0.72359031
0.2051094 0.18036604 0.72179586
0.20599866 0.18000513 0.72035158
0.20684256 0.17960937 0.71876776
0.20772958 0.17925575 0.71735263
0.20868742 0.17896722 0.71619803
0.20968571 0.17871675 0.71519566
0.21059629 0.17839502 0.71390814
0.21158087 0.17813952 0.71288568
0.21264173 0.17795093 0.71213096
0.21363711 0.17771015 0.7111674
0.21469252 0.17752187 0.71041393
0.21573322 0.17732374 0.70962107
0.21677122 0.17712574 0.70882869
0.21784164 0.17695642 0.70815104
0.21892239 0.17679738 0.70751464
0.22006033 0.17668612 0.7070694
0.22116129 0.17654662 0.70651114
0.22227405 0.17641808 0.70599675
0.22340597 0.17630614 0.70554876
0.22455122 0.17620592 0.70514768
0.22570744 0.17611538 0.70478541
0.22687781 0.17603685 0.70447111
0.22806773 0.17597426 0.70422065
0.2292548 0.17591019 0.70396423
0.23047206 0.17586987 0.70380288
0.23168968 0.17583025 0.70364434
0.23292488 0.17580433 0.70354062
0.23417619 0.17579079 0.70348644
0.23544404 0.17578976 0.70348227
0.23671943 0.17579432 0.70350057
0.23801927 0.17581691 0.70359093
0.23933403 0.17585021 0.70372421
0.24066657 0.17589614 0.70390803
0.24202465 0.17596017 0.70416427
0.24339722 0.17603402 0.70445979
0.24478765 0.17611994 0.70480365
0.24619587 0.17621771 0.70519489
0.24765936 0.17635383 0.70573962
0.24913737 0.17649886 0.70631999
0.25065237 0.17666845 0.70699871
0.25220314 0.17686144 0.707771
0.25381786 0.1770971 0.70871407
0.25548223 0.17736486 0.70978558
0.25723523 0.17769118 0.71109146
0.25909692 0.17808895 0.71268326
0.26115656 0.17861818 0.71480119
0.2637637 0.17951486 0.71838951
0.20226721 0.1838194 0.73034239
0.20285396 0.18315941 0.72772014
0.20355943 0.1826144 0.72555476
0.20432343 0.18212855 0.72362441
0.20513348 0.18168966 0.72188061
0.20597194 0.1812813 0.72025812
0.20684066 0.18090454 0.71876121
0.20777787 0.18059199 0.7175194
0.20868731 0.1802593 0.71619761
0.20967172 0.1799951 0.71514791
0.2106047 0.17969024 0.71393663
0.21156774 0.1794146 0.71284145
0.21259259 0.17919436 0.7119664
0.21359234 0.17895573 0.71101832
0.21467508 0.17878909 0.71035624
0.21573043 0.17860176 0.70961189
0.21679863 0.17842719 0.70891833
0.21784727 0.17823867 0.70816934
0.21890625 0.17806077 0.70746249
0.22004305 0.17794785 0.70701385
0.22114334 0.1778069 0.7064538
0.22226459 0.17768429 0.70596671
0.22340418 0.17757767 0.7055431
0.22454946 0.17747676 0.70514214
0.22570533 0.17738532 0.70477879
0.22687568 0.17730621 0.7044645
0.22805858 0.17723772 0.7041924
0.22925258 0.17717859 0.70395744
0.23046856 0.17713699 0.70379215
0.23168616 0.1770971 0.70363367
0.23292001 0.17706998 0.7035259
0.23417106 0.17705618 0.70347106
0.23543985 0.17705584 0.70346975
0.23672059 0.17706446 0.70350403
0.23801488 0.17708308 0.70357794
0.23934089 0.17712495 0.70374435
0.24067135 0.17716968 0.70392203
0.2420277 0.17723288 0.70417315
0.24340132 0.17730801 0.70447165
0.2447942 0.17739633 0.70482254
0.24621288 0.1775023 0.70524365
0.24766585 0.17763181 0.70575815
0.24914825 0.17778097 0.7063508
0.25065958 0.17794918 0.70701909
0.25221175 0.17814451 0.7077952
0.25382251 0.17837904 0.70872706
0.25550857 0.17866389 0.70985878
0.25726095 0.17899205 0.71116257
0.25912911 0.17939708 0.71277183
0.26120955 0.17994435 0.71494627
0.26386172 0.18087818 0.71865648
0.20354643 0.18391173 0.72550845
0.20431276 0.18342455 0.72358662
0.20511645 0.18297689 0.72182065
0.20596589 0.18257543 0.72023696
0.20684753 0.18220739 0.71878505
0.20775852 0.1818696 0.71745253
0.20869096 0.18155468 0.71621019
0.20963995 0.18125793 0.71503955
0.21062095 0.18099232 0.71399176
0.21159542 0.18072435 0.71293467
0.21258181 0.18046977 0.71193033
0.21360417 0.18024856 0.71105772
0.2146254 0.18002906 0.71019185
0.21570227 0.17985857 0.70951927
0.21676017 0.17967436 0.70879257
