# .PCD v0.7 - Point Cloud Data file format
VERSION 0.7
FIELDS x y z
SIZE 4 4 4
TYPE F F F
COUNT 1 1 1
WIDTH 1396
HEIGHT 1
VIEWPOINT 0 0 0 1 0 0 0
POINTS 1396
DATA ascii
0.090892948 0.020535082 0.73965532
0.089468062 0.020412751 0.73889929
0.088085622 0.020311289 0.73847687
0.08662606 0.020175152 0.73750395
0.085100681 0.020010717 0.73608267
0.083402194 0.019771069 0.73346913
0.10459847 0.022264697 0.73257595
0.10351568 0.022321433 0.73480207
0.10235584 0.022334799 0.73629254
0.10114484 0.022319771 0.73730201
0.099913947 0.022293121 0.73811454
0.098701186 0.022274166 0.73905247
0.097438328 0.022229262 0.73955542
0.096151456 0.022171989 0.73985124
0.094861023 0.02211272 0.74011075
0.093550026 0.022043318 0.74020267
0.09221302 0.021961667 0.74009216
0.090845868 0.021866322 0.73975629
0.089430951 0.021749862 0.73907238
0.088050507 0.021649837 0.73866123
0.086599618 0.021519154 0.73774797
0.08507929 0.021359354 0.73635954
0.083412789 0.021138087 0.73396951
0.10552756 0.023498714 0.7294603
0.10458781 0.023629099 0.73304397
0.10348882 0.023673065 0.73511708
0.1023239 0.023680769 0.73655599
0.10111137 0.023662768 0.73754609
0.099877059 0.023632772 0.73832399
0.098659322 0.023609377 0.73921543
0.097400382 0.023565277 0.73974586
0.096111342 0.023506247 0.74001974
0.094821505 0.02344653 0.74027991
0.093508855 0.023376003 0.7403549
0.092169985 0.02329348 0.74022657
0.090803117 0.023198858 0.73988968
0.089392453 0.023085333 0.73923481
0.088016316 0.022987723 0.73885202
0.086572543 0.022861592 0.73798716
0.085054822 0.022705235 0.73661357
0.08342506 0.022503555 0.73448092
0.10555984 0.024889611 0.73032814
0.10457236 0.024988979 0.73346817
0.10346203 0.025023133 0.73543185
0.10228971 0.025024317 0.73679954
0.10106989 0.025000751 0.7377215
0.099839032 0.024970643 0.7385233
0.098618038 0.024943978 0.73938268
0.09735734 0.024897829 0.73989445
0.096075043 0.024841189 0.74021846
0.094784021 0.024780221 0.74046463
0.093462333 0.02470538 0.7404651
0.092128098 0.024625026 0.74036944
0.090762861 0.024531446 0.74004167
0.089354172 0.024419889 0.73939854
0.087982163 0.024324551 0.73904252
0.086544804 0.024202429 0.73822105
0.085029528 0.024049416 0.73686141
0.083431371 0.023864336 0.73494935
0.10567721 0.026318498 0.73196453
0.10459214 0.026363775 0.73420554
0.10345577 0.026381306 0.73592615
0.10227937 0.026377611 0.73724812
0.10105561 0.0263502 0.73812741
0.09981852 0.026315391 0.73886883
0.098593235 0.026284918 0.7396856
0.097329617 0.026236199 0.74016702
0.096053027 0.026181296 0.74053115
0.094747998 0.026113473 0.74066055
0.093430422 0.026040182 0.74068886
0.092087731 0.025956191 0.7405237
0.090735398 0.025868446 0.74029016
0.089335226 0.025761381 0.7397061
0.087970749 0.025669515 0.73940033
0.086513765 0.025540732 0.7384305
0.085019223 0.025398225 0.73721629
0.083426066 0.025218375 0.73533475
0.081433594 0.024885155 0.7307083
0.11202747 0.027897745 0.7293151
0.11105447 0.028005809 0.73287696
0.10978717 0.027963504 0.73351955
0.10811095 0.02772183 0.73031914
0.10704588 0.027777091 0.73284161
0.1059209 0.027800359 0.73474026
0.10475495 0.027801864 0.73621368
0.10356996 0.027792431 0.73747385
0.1023677 0.027773507 0.73854631
0.10112966 0.027737029 0.73928225
0.099916719 0.027710721 0.74020588
0.098685421 0.027675025 0.74095112
0.097396374 0.027613752 0.74120599
0.096113786 0.027554788 0.74150521
0.09481398 0.027488232 0.74166012
0.093504004 0.027417257 0.741732
0.092155747 0.027330667 0.74150842
0.090788156 0.027236581 0.74114472
0.089370228 0.027122781 0.74041563
0.088028371 0.027039953 0.74026567
0.086583912 0.026917227 0.73937452
0.085110955 0.026784673 0.73830229
0.083577819 0.026630402 0.73683137
0.081915222 0.026429102 0.73449296
0.11338221 0.029354215 0.73009783
0.11248623 0.029495507 0.73446143
0.11137452 0.029526159 0.73658842
0.11025643 0.029550508 0.73858231
0.10910083 0.029554419 0.74015868
0.10792682 0.029547632 0.74151403
0.10673616 0.029531278 0.74267477
0.10552609 0.029504538 0.74362594
0.10431413 0.029475726 0.7445305
0.10308195 0.029436901 0.74523324
0.10184806 0.02939634 0.74590003
0.10058945 0.02934435 0.7463401
0.099326596 0.029290155 0.74673247
0.098055638 0.029231943 0.74704772
0.096726902 0.029149823 0.74689215
0.095408708 0.02907224 0.74682432
0.09416876 0.02902583 0.74736601
0.092865072 0.028953731 0.74740475
0.091543525 0.028874494 0.74730742
0.090204865 0.028788932 0.74708521
0.088850439 0.028697565 0.74675304
0.08747375 0.028598227 0.74626821
0.086087219 0.028495781 0.74572521
0.08468201 0.028387092 0.74506414
0.083200812 0.028251529 0.74388897
0.081731506 0.028121412 0.74282509
0.080221348 0.027978048 0.7415092
0.078644671 0.027812481 0.73977745
0.077002309 0.027625814 0.73765057
0.074927367 0.027291752 0.73273152
0.11342242 0.03074415 0.73114699
0.11245953 0.030845001 0.73482871
0.11138081 0.030886687 0.73726422
0.11026052 0.030905835 0.73922199
0.10909714 0.030902922 0.74071199
0.10792237 0.030892707 0.74204814
0.10673188 0.03087388 0.74319935
0.10552663 0.030847132 0.74418235
0.1043075 0.030813128 0.74501324
0.10308179 0.030775264 0.74576193
0.10185206 0.0307348 0.7464537
0.10060277 0.030685447 0.74696136
0.099356547 0.03063675 0.74747944
0.098087043 0.030578159 0.74779367
0.096802838 0.030513287 0.74798161
0.095515117 0.030446969 0.74813658
0.09421894 0.03037709 0.74822181
0.092914872 0.030304193 0.74824411
0.091591358 0.030223973 0.74811912
0.090258829 0.030140541 0.74793047
0.088915445 0.03005325 0.74766713
0.087559372 0.029961735 0.74731851
0.086197905 0.029868722 0.74694055
0.084786169 0.029758155 0.74621677
0.083364137 0.029644825 0.74543947
0.081908673 0.029520631 0.74445105
0.080424137 0.029387571 0.74328887
0.078900069 0.029242128 0.74188924
0.077303745 0.029073775 0.74004287
0.075550959 0.0288551 0.7372126
0.11337638 0.032090224 0.73133194
0.11239763 0.032176845 0.73484945
0.11130826 0.032209203 0.73717815
0.11019106 0.03222619 0.73916316
0.10903401 0.032223083 0.74071008
0.10786254 0.0322119 0.74207395
0.10667071 0.032190181 0.7432096
0.10546549 0.032161623 0.74419039
0.10424708 0.03212633 0.74502516
0.10301653 0.032085098 0.74572968
0.10177879 0.032040156 0.74635202
0.10054001 0.031994008 0.74694699
0.099288553 0.031942204 0.74742025
0.098029226 0.031886868 0.74781597
0.096749224 0.031823218 0.74803537
0.095461823 0.031756543 0.74819052
0.09417405 0.031689584 0.74833858
0.092866458 0.031615242 0.74833077
0.091540821 0.031534344 0.74818724
0.090209357 0.031451605 0.74800438
0.088862002 0.031363383 0.74770945
0.087510429 0.031273954 0.74739182
0.086136736 0.031177215 0.7469241
0.084747985 0.031075872 0.74636209
0.083325587 0.030963756 0.74557948
0.081887484 0.030847088 0.74470806
0.080401987 0.030715615 0.74353558
0.078869104 0.030569725 0.74207312
0.077280492 0.030407041 0.74027532
0.075556733 0.030202769 0.73763323
0.11331595 0.033428699 0.73137254
0.11231942 0.033501104 0.73471034
0.11121802 0.033524081 0.73692113
0.11011361 0.033542827 0.73902857
0.10896364 0.033539966 0.74064064
0.10779054 0.033525445 0.74198782
0.10659698 0.033501036 0.74310678
0.10539391 0.033471428 0.74410564
0.10417435 0.033434205 0.74492943
0.10293608 0.033388667 0.74556696
0.10169765 0.033342339 0.74618387
0.10046045 0.033295751 0.74679214
0.09920837 0.033242956 0.74726081
0.097952157 0.033188008 0.74768233
0.096670099 0.033123337 0.74788553
0.09538471 0.033057109 0.74805701
0.094091542 0.032988012 0.74816346
0.092779495 0.032912128 0.74812263
0.091461964 0.032834291 0.74804163
0.09012486 0.032749936 0.74781734
0.088783056 0.032664172 0.74756455
0.087431498 0.032575488 0.74724764
0.08605817 0.032479763 0.74678326
0.08466813 0.032378986 0.74621272
0.083249345 0.032269515 0.7454564
0.081805885 0.032152683 0.74454886
0.080320768 0.032023482 0.74338019
0.078781299 0.031878226 0.74187464
0.077198803 0.031720817 0.74011964
0.075475477 0.031521507 0.73748225
0.11323225 0.034756854 0.73118085
0.11223986 0.034824885 0.73455787
0.11112293 0.03483744 0.73661822
0.11002392 0.034854636 0.738778
0.10889028 0.034855418 0.74054331
0.10771738 0.03483849 0.74189079
0.10652208 0.034811459 0.7429933
0.10532232 0.034781292 0.74402076
0.10409275 0.034738719 0.74475622
0.10284737 0.034689404 0.74533319
0.10160768 0.034641534 0.7459408
0.10037469 0.034595452 0.7465862
0.099133834 0.034545861 0.74714774
0.097874478 0.034489103 0.74754375
0.096595183 0.034424953 0.74776942
0.09531074 0.034358755 0.74794817
0.094014801 0.03428854 0.74803311
0.092703946 0.034213103 0.74800181
0.091379195 0.034133181 0.74786657
0.09002576 0.034043819 0.74752176
0.088688254 0.033960067 0.74730295
0.087351657 0.033876717 0.74709684
0.08598233 0.033783168 0.7466619
0.084588252 0.033682257 0.74606347
0.083172381 0.033574983 0.74532819
0.081723355 0.033458173 0.7443831
0.080232009 0.033329256 0.74317342
0.078660712 0.03317713 0.74145615
0.077109508 0.033032499 0.73991346
0.075393662 0.032840192 0.73732764
0.11313602 0.036080211 0.73086435
0.11215392 0.036146358 0.73434287
0.1110499 0.036160246 0.73652762
0.10994321 0.036170483 0.73861277
0.10881208 0.036169015 0.74040085
0.10763673 0.036148779 0.7417255
0.1064444 0.036120757 0.7428546
0.10524713 0.036089689 0.74390399
0.1040103 0.036043108 0.7445758
0.10276794 0.035993941 0.74517936
0.10153438 0.035947159 0.74583906
0.10029809 0.035898656 0.74645633
0.099061355 0.035849452 0.74705166
0.097797602 0.035790525 0.74741167
0.096519187 0.035726242 0.74764448
0.09523765 0.035660811 0.74784631
0.093938082 0.035589121 0.74790293
0.092627838 0.035514027 0.74787652
0.091290735 0.035430305 0.74764872
0.08994811 0.035345122 0.74738598
0.088609107 0.035261258 0.7471568
0.087267585 0.035176866 0.74691552
0.085902408 0.035085447 0.7465114
0.084509276 0.034985885 0.74592048
0.083090737 0.03487923 0.74516749
0.081643611 0.034764715 0.74423665
0.08012639 0.034630425 0.74285227
0.078565866 0.034484595 0.74121094
0.077002883 0.03433945 0.73959237
0.075278282 0.034149565 0.73695302
0.1130259 0.037399031 0.73040998
0.11206479 0.037466921 0.734097
0.11097974 0.037483953 0.73646456
0.10986394 0.037487067 0.73846126
0.10872679 0.037480123 0.74019253
0.10754953 0.037456825 0.7415005
0.10635953 0.037427671 0.7426514
0.1051567 0.037392721 0.7436524
0.10392977 0.037348472 0.74441206
0.10269524 0.03730087 0.74508339
0.10146306 0.037253343 0.745754
0.10021936 0.037201308 0.74630886
0.098978236 0.037149563 0.74686849
0.097716838 0.037090763 0.74724823
0.096437588 0.037025847 0.74747509
0.095153637 0.036959291 0.74765867
0.093857735 0.036888734 0.74774474
0.092541069 0.036811732 0.74767005
0.091208309 0.036729813 0.74747634
0.089873448 0.036647446 0.74727231
0.088529803 0.036562681 0.74700934
0.087179743 0.036476165 0.74670702
0.085816689 0.036386155 0.74631959
0.084421486 0.036287159 0.74571532
0.082997449 0.036180288 0.74492586
0.081549659 0.036067344 0.74399251
0.080025427 0.035933629 0.74256295
0.078479759 0.035795107 0.74102426
0.076894008 0.035646647 0.73925662
0.075133599 0.035451718 0.73638666
0.11293567 0.038726375 0.73015428
0.11198345 0.038790762 0.73392737
0.11091443 0.038809344 0.73644817
0.10979497 0.038807444 0.73840708
0.10864329 0.038792275 0.74000108
0.10746521 0.038766339 0.74130183
0.10627979 0.038736589 0.74249464
0.10507874 0.038700566 0.74351126
0.10385858 0.038657092 0.74432981
0.10263076 0.038610458 0.7450577
0.10139515 0.038560562 0.74569762
0.1001494 0.038506866 0.7462343
0.098898314 0.038450949 0.74671155
0.097637922 0.038391843 0.74709982
0.096356519 0.038325883 0.74730992
0.095069624 0.038258038 0.74747103
0.093776003 0.038188122 0.74757588
0.092463702 0.038112566 0.74753547
0.091143988 0.038034804 0.74744034
0.089809664 0.037952989 0.74723947
0.088460468 0.037867077 0.74693495
0.087098919 0.037777893 0.74654925
0.085728876 0.037686631 0.74611288
0.08432962 0.037587598 0.74548179
0.082909778 0.037483379 0.74472326
0.081457078 0.037370838 0.74375796
0.079950087 0.037244476 0.74244773
0.078406028 0.037109144 0.74092084
0.076799393 0.036958411 0.7390157
0.075002849 0.036759309 0.73591226
0.11273371 0.040015019 0.72878766
0.11187435 0.040105298 0.73348689
0.11082674 0.040126689 0.73621655
0.10971057 0.040122412 0.73820698
0.10856152 0.040105179 0.7398259
0.10738909 0.040078811 0.7411781
0.10620315 0.040046804 0.74236554
0.10499591 0.040006898 0.74332732
0.10378383 0.039964505 0.74421662
0.10256239 0.039918542 0.74499857
0.10132451 0.039866716 0.74561816
0.1000804 0.039812542 0.74616766
0.098822929 0.039753944 0.74659169
0.097559467 0.039693117 0.74695522
0.096280217 0.039627478 0.74718279
0.094992936 0.039559267 0.74734104
0.093696125 0.039488211 0.7474215
0.092389241 0.039414264 0.74742299
0.091070756 0.039337084 0.74733722
0.089736208 0.039255537 0.74713475
0.088389531 0.039170839 0.74684882
0.087023869 0.039081313 0.74643332
0.085642025 0.038987681 0.74591315
0.084241048 0.038889378 0.74527138
0.082818456 0.03878592 0.74449557
0.081366442 0.038675323 0.74353707
0.079873726 0.038555056 0.74232572
0.078326859 0.038421817 0.74078083
0.076697871 0.038268864 0.73872924
0.074851789 0.038063183 0.73530513
0.11233083 0.041241504 0.72542721
0.11159869 0.041366525 0.73142123
0.1105895 0.041396298 0.73455113
0.1095105 0.04140088 0.73691672
0.10838453 0.041388556 0.73876792
0.10722774 0.041364968 0.74027747
0.10604705 0.041332699 0.74152386
0.10485219 0.041295066 0.74260551
0.10364176 0.041251957 0.74351829
0.10242296 0.041205473 0.74433136
0.10119652 0.041156165 0.74505562
0.099954292 0.041101709 0.74562693
0.098705299 0.041044876 0.74612647
0.097437561 0.040982343 0.7464602
0.096165389 0.04091844 0.74674958
0.094887868 0.040852718 0.74698877
0.093591332 0.040781759 0.74707472
0.092283256 0.040707581 0.74707031
0.090963088 0.040630244 0.74697542
0.089628756 0.040549152 0.74677801
0.08828117 0.040464833 0.74648881
0.086919338 0.040377088 0.74610454
0.085533388 0.040283509 0.7455582
0.084128827 0.040185556 0.74489474
0.082706749 0.040083744 0.74412632
0.081247032 0.03997308 0.74311852
0.079751007 0.039854296 0.7418893
0.07818675 0.039719723 0.74023271
0.076517031 0.039560989 0.73791766
0.074538715 0.039330199 0.73363888
0.11392246 0.042761318 0.72856444
0.11298768 0.042812988 0.73259103
0.11193198 0.042823426 0.73529696
0.11081303 0.042812243 0.73730373
0.10965422 0.042787209 0.73886698
0.10847624 0.042755127 0.74020052
0.10728806 0.042718932 0.7413975
0.10608899 0.042678639 0.74245834
0.10487399 0.0426329 0.74334526
0.10364607 0.04258275 0.74409199
0.10240194 0.042527519 0.74467736
0.10115021 0.042469785 0.74518126
0.099902816 0.042412773 0.74570584
0.098640107 0.042351246 0.74609017
0.097363748 0.042285867 0.74635333
0.096082047 0.042218834 0.74656683
0.094794154 0.04215008 0.74672568
0.093494333 0.042078093 0.74678832
0.092179835 0.042002432 0.7467376
0.090848185 0.041922383 0.74655938
0.089506909 0.041840151 0.74631476
0.088151924 0.041754626 0.74597651
0.086783879 0.041666232 0.74555272
0.085402459 0.041574799 0.74504465
0.083998665 0.041478403 0.74439222
0.082571879 0.041377053 0.74359643
0.081121892 0.041270681 0.74266112
0.079591684 0.041146219 0.7412051
0.078055628 0.041021369 0.7397452
0.076367453 0.040862724 0.73731387
0.074448541 0.040653333 0.73343134
0.1152184 0.044181965 0.72877532
0.11428246 0.044227555 0.73285365
0.11322826 0.044234507 0.735614
0.11211286 0.044221364 0.73768103
0.11096268 0.044196405 0.73934406
0.10979186 0.0441643 0.74075669
0.10861127 0.044128269 0.74203175
0.10741728 0.044087574 0.74314314
0.10620082 0.044039793 0.74401748
0.10498334 0.043991163 0.74485528
0.10375372 0.0439386 0.74556148
0.10251607 0.043883443 0.74617755
0.10126967 0.043825515 0.74670142
0.10001789 0.04376588 0.74716532
0.098753825 0.043702781 0.74751508
0.097484842 0.043638244 0.74781531
0.09620516 0.043570772 0.74802208
0.094916284 0.043500967 0.74815124
0.09361849 0.04342889 0.74820811
0.092310987 0.043354414 0.74818969
0.090992972 0.043277487 0.74809301
0.089668021 0.04319898 0.74794751
0.088325232 0.04311645 0.74767566
0.086970374 0.043031283 0.74732387
0.085598446 0.042942382 0.74685949
0.084214695 0.042851083 0.74632388
0.082800314 0.042753287 0.74558926
0.081365146 0.042651378 0.74473023
0.079909004 0.042545214 0.74374998
0.078402184 0.042428687 0.74245465
0.076832779 0.042299308 0.74077612
0.075189635 0.042155065 0.73865551
0.073341168 0.041968353 0.73525834
0.11642725 0.045576386 0.72808605
0.11552253 0.045625404 0.73256773
0.11448056 0.045632005 0.735502
0.1133669 0.045616359 0.73762161
0.11222881 0.04559233 0.73942882
0.1110619 0.04555922 0.74089843
0.10988297 0.045521639 0.74220544
0.10869282 0.045480222 0.74336511
0.10748424 0.045433208 0.74431926
0.10627414 0.045385063 0.7452293
0.10504773 0.045332111 0.74596673
0.10381946 0.045278214 0.74666518
0.10257898 0.045220792 0.7472381
0.10133292 0.045161672 0.74774671
0.10007862 0.045100175 0.74817204
0.098814964 0.045036159 0.74850869
0.097547621 0.044971094 0.74880594
0.09626735 0.044902831 0.7489922
0.094981499 0.044833161 0.74912983
0.093686245 0.044761218 0.74919116
0.092382148 0.044687249 0.74918371
0.091069423 0.04461129 0.74911177
0.089746974 0.04453332 0.74896997
0.088409983 0.044452153 0.74872571
0.0870656 0.044369601 0.74843466
0.085699551 0.044282511 0.74799681
0.084326223 0.04419405 0.74751902
0.082929797 0.044101089 0.74689299
0.08150927 0.044003271 0.74611729
0.080063902 0.043900855 0.74519241
0.078588322 0.043792643 0.74408793
0.077065594 0.043675408 0.74269825
0.075485334 0.043547206 0.74096549
0.07381548 0.043401904 0.73869479
0.071893379 0.043207616 0.73486668
0.11762817 0.046970263 0.72729129
0.11675289 0.047021091 0.73217374
0.11571902 0.047025766 0.73524797
0.1146208 0.047011208 0.73756218
0.11348533 0.04698522 0.73942524
0.11232476 0.046951469 0.74097902
0.11114837 0.046912663 0.74232835
0.10996049 0.046869989 0.74352407
0.10876303 0.046824187 0.74459159
0.10755177 0.046774261 0.74549878
0.10633457 0.04672236 0.74632388
0.10510882 0.046667844 0.74704754
0.10387813 0.046611778 0.74770612
0.10263398 0.046552144 0.74822956
0.1013899 0.046492204 0.74873781
0.10013627 0.046429768 0.74915195
0.098869704 0.046364121 0.7494486
0.097602487 0.046298243 0.74973166
0.096324056 0.046229757 0.74991769
0.095042296 0.046160407 0.7500726
0.093747772 0.046088181 0.75012499
0.092446983 0.046014674 0.75012839
0.091135733 0.045938872 0.75005335
0.08981809 0.045861855 0.74993318
0.08848235 0.045781158 0.74968404
0.08714211 0.045699663 0.74940914
0.085788503 0.045615584 0.74904627
0.084417194 0.045528226 0.7485683
0.083030701 0.045437954 0.74799716
0.081621982 0.045343667 0.74728781
0.080196306 0.045246385 0.74648118
0.078740418 0.045143686 0.74549192
0.077244669 0.04503382 0.74426311
0.075711451 0.044917315 0.74281877
0.074107975 0.044788226 0.74095458
0.072383188 0.044637293 0.73835963
0.070321076 0.04442475 0.73369682
0.1188288 0.048366036 0.72646815
0.11798172 0.048417281 0.73175359
0.11695402 0.048419058 0.73495293
0.11586703 0.048403941 0.7374261
0.11473847 0.048376959 0.73939121
0.11358427 0.048342437 0.74103302
0.1124121 0.048302587 0.74244291
0.11122473 0.048258159 0.74365908
0.11003178 0.048211701 0.74478191
0.10882861 0.0481622 0.74577308
0.10761604 0.048110019 0.7466467
0.10639357 0.048055008 0.74740374
0.10516576 0.047998372 0.74809003
0.10393172 0.047940027 0.74870104
0.10268753 0.047879159 0.74920684
0.10144262 0.047817733 0.74969155
0.10018566 0.047753606 0.75006199
0.098923042 0.047688052 0.75037575
0.097656757 0.047621559 0.750651
0.096378826 0.047552526 0.7508263
0.095097974 0.047482833 0.750974
0.09380506 0.047410607 0.75102478
0.092506275 0.047337208 0.75102949
0.091197833 0.047261912 0.75096214
0.089885294 0.047185801 0.75086617
0.088553406 0.047106016 0.75063169
0.087218173 0.047025733 0.75037926
0.085866436 0.046942424 0.75001621
0.084504329 0.046857394 0.74958944
0.083125137 0.046769299 0.74905503
0.081730857 0.046678711 0.74843055
0.08030992 0.046583448 0.74764121
0.078870118 0.046485167 0.74674469
0.077404223 0.046382584 0.74569744
0.075893097 0.046272352 0.7443797
0.074337706 0.046154846 0.74280727
0.072696522 0.046022955 0.74072415
0.07093522 0.045870878 0.73793137
0.06861034 0.045622248 0.73168933
0.12005035 0.049769033 0.72584963
0.11923044 0.049819093 0.73153752
0.11821147 0.049818248 0.73489004
0.11712488 0.049799524 0.7374106
0.11599538 0.049769338 0.73939878
0.11484724 0.049733624 0.74112755
0.11367894 0.049692441 0.74259555
0.11249049 0.049645904 0.74381691
0.11130413 0.049599104 0.74501622
0.11010166 0.04954813 0.74602413
0.10889123 0.049494937 0.74692529
0.10767351 0.049439695 0.74773073
0.10645033 0.04938288 0.74846184
0.10521758 0.049323689 0.74908572
0.10397932 0.049263123 0.74964261
0.10273817 0.04920163 0.75015789
0.10149024 0.049138535 0.75060099
0.1002344 0.049073637 0.75096536
0.098973647 0.049007628 0.75127918
0.097705625 0.048940055 0.75152582
0.096430682 0.048871003 0.75171059
0.095152035 0.048801258 0.75186139
0.093859322 0.04872879 0.7518999
0.092563502 0.048655633 0.75191385
0.091257051 0.048580654 0.75184792
0.089948811 0.04850528 0.75177068
0.088620141 0.048426326 0.75154638
0.087288827 0.048346974 0.75130922
0.085942052 0.048265003 0.75096828
0.084587075 0.048181668 0.75057846
0.083217844 0.048096087 0.7500996
0.08182954 0.048007399 0.74950224
0.080423236 0.047915932 0.74879783
0.078997813 0.047821447 0.74798274
0.077543631 0.047722425 0.74699724
0.076062322 0.047619294 0.74585813
0.07454513 0.047510717 0.74451423
0.072958179 0.047391064 0.74275684
0.071288906 0.047258757 0.74052078
0.069447905 0.047099382 0.73726535
0.12139841 0.051202334 0.72663808
0.12052085 0.051230595 0.7317782
0.11949603 0.051223274 0.73512268
0.11840431 0.051199432 0.73762798
0.11727507 0.051166166 0.73964822
0.11612538 0.051127471 0.74138457
0.11494938 0.051082298 0.74279386
0.11377353 0.051036362 0.74415457
0.11258479 0.050987169 0.74534303
0.11137989 0.05093405 0.74633664
0.11016916 0.050879225 0.74724221
0.1089491 0.050822172 0.74803168
0.10772622 0.050764184 0.74877006
0.10649896 0.050705016 0.74944556
0.10526163 0.050643556 0.75001168
0.10402598 0.050582197 0.75057465
0.10278413 0.050519396 0.75106758
0.10153385 0.050454799 0.75147527
0.10028093 0.050389584 0.75184894
0.099018663 0.050322548 0.75213581
0.097752526 0.050254606 0.75238341
0.096478648 0.050185289 0.75256276
0.095199242 0.050114874 0.75269419
0.093909614 0.050042644 0.7527433
0.092617802 0.04997009 0.75277478
0.091313921 0.049895357 0.75271505
0.090005875 0.049820025 0.7526263
0.088682324 0.049742125 0.75242692
0.087354548 0.049663581 0.75220245
0.086012617 0.049582824 0.75188327
0.084663413 0.049500994 0.75152129
0.083294421 0.049416136 0.75103134
0.08191891 0.049330361 0.7505089
0.08053112 0.049242899 0.74991643
0.079118885 0.049151745 0.74917513
0.077686965 0.049057811 0.74832159
0.076226734 0.048959762 0.74730349
0.074725263 0.048855718 0.74604362
0.073188893 0.048746742 0.74459034
0.071597315 0.04862994 0.74282265
0.069895469 0.04849707 0.740408
0.067990549 0.048334546 0.7367968
0.12280139 0.052644335 0.7280935
0.1218515 0.052649319 0.73248655
0.12079632 0.052630436 0.735542
0.11970163 0.052601993 0.73805124
0.11856559 0.052564129 0.74002552
0.11741265 0.052521899 0.74174988
0.11624666 0.052476328 0.74327743
0.11506215 0.052426465 0.74456376
0.11386225 0.052373156 0.74565291
0.11265472 0.052317929 0.74663007
0.11143623 0.052260187 0.74746948
0.11021758 0.05220205 0.74827921
0.10899073 0.052142121 0.74898648
0.10776624 0.052082244 0.74969256
0.10653757 0.052021332 0.75033844
0.10530403 0.051959317 0.75092131
0.10406929 0.051896937 0.75147617
0.10282578 0.051832728 0.75193918
0.10157663 0.051767465 0.75234133
0.10032333 0.051701311 0.75269717
0.099062458 0.051633712 0.75298113
0.097799301 0.051565755 0.75323868
0.096522562 0.051495414 0.75338173
0.095245525 0.05142501 0.75351846
0.093956739 0.051352642 0.75356132
0.092664778 0.051279798 0.7535789
0.091365963 0.051205829 0.75354481
0.090060413 0.051130921 0.75346208
0.088740908 0.051053833 0.75327998
0.087418482 0.050976358 0.75308168
0.086079657 0.050896473 0.75277215
0.084727578 0.050814703 0.75237763
0.083373986 0.050732825 0.75198257
0.082000218 0.05064813 0.75145924
0.080617428 0.050562315 0.75088799
0.079216406 0.050473958 0.75020891
0.077810884 0.050385159 0.74951625
0.076373637 0.050292108 0.74863333
0.074909918 0.050195467 0.74760044
0.073417343 0.050095078 0.74640763
0.071861111 0.049986098 0.74484122
0.070240095 0.04986858 0.74290693
0.0685215 0.049738087 0.74041504
0.066571862 0.049576432 0.73657185
0.12417995 0.054076795 0.72932559
0.12319752 0.054068346 0.73340291
0.12212796 0.054041747 0.73633468
0.12102542 0.054007679 0.73878652
0.11988375 0.053965494 0.74072033
0.1187195 0.05391831 0.74234027
0.11753824 0.053867497 0.74372292
0.11634091 0.053813267 0.74489045
0.11512964 0.053756118 0.74587613
0.11391402 0.053697839 0.74678403
0.11269119 0.053638015 0.74759078
0.1114722 0.053578425 0.74840617
0.11024997 0.053518075 0.74916428
0.1090268 0.053457219 0.7498886
0.10780244 0.053395987 0.75057858
0.10657303 0.053333625 0.75120157
0.10534102 0.053270597 0.75178224
0.1041057 0.053206932 0.75231653
0.10286067 0.053141538 0.75275189
0.10161366 0.053075705 0.75315773
0.10035811 0.053008359 0.75348103
0.099094398 0.052939743 0.75372887
0.097829998 0.052870955 0.75396395
0.096556038 0.052800644 0.75411701
0.095280513 0.052730042 0.75425363
0.093996495 0.052658178 0.75432146
0.092706323 0.052585468 0.75434071
0.091409333 0.052511733 0.7543087
0.090106219 0.052437078 0.75423241
0.088794261 0.052361269 0.75409389
0.087475784 0.052284606 0.75391215
0.086140975 0.052205723 0.75361931
0.084796585 0.052125603 0.75326675
0.083442613 0.052044224 0.75285709
0.08207687 0.051961452 0.75237685
0.080693245 0.051876348 0.75178772
0.079299875 0.051790167 0.75114793
0.077895023 0.051702585 0.75044757
0.076483481 0.051614296 0.74972028
0.075049356 0.051523324 0.74886459
0.073598504 0.051430304 0.74792212
0.072109386 0.051332682 0.74676025
0.07056275 0.05122789 0.74526685
0.068940632 0.051113911 0.74334222
0.067218907 0.050987735 0.74085391
0.065277167 0.050834443 0.73709553
0.12553695 0.055501215 0.73035437
0.12453159 0.055482056 0.73422068
0.12345697 0.055449672 0.73713273
0.12233852 0.055408888 0.73943454
0.12119755 0.055363528 0.74139702
0.12001157 0.055310078 0.7427969
0.11881719 0.055254787 0.74405456
0.11760246 0.055195846 0.74505377
0.11638618 0.055136293 0.74600023
0.11516483 0.055075601 0.74686199
0.113942 0.055014383 0.74767876
0.11272191 0.054953314 0.74849373
0.11150303 0.054892201 0.74929261
0.11027744 0.05482978 0.75000185
0.10905307 0.054767314 0.75069892
0.10782767 0.054704491 0.75136417
0.10660177 0.054641385 0.75200367
0.1053686 0.054577034 0.75255942
0.10412785 0.054511469 0.75303262
0.10288108 0.05444492 0.75344026
0.10162499 0.054377034 0.75375783
0.10036213 0.054308057 0.75401038
0.099094912 0.054238409 0.75422019
0.097824633 0.054168295 0.7543993
0.096550062 0.054097541 0.75453973
0.09527272 0.054026473 0.75465482
0.093992606 0.053954896 0.75474542
0.092707179 0.053882673 0.75479358
0.091414444 0.053809475 0.7547856
0.090117812 0.05373574 0.7547496
0.088816985 0.05366157 0.75468385
0.087507606 0.053586274 0.75455856
0.086181983 0.053508978 0.7543214
0.084848635 0.053430747 0.75403631
0.083501495 0.053350918 0.75366288
0.082144931 0.053269971 0.75323439
0.080762766 0.053186059 0.75264382
0.079375342 0.053101629 0.75203246
0.07797686 0.053015981 0.75136274
0.076569639 0.05292942 0.75065213
0.075146623 0.05284116 0.74985611
0.073718295 0.052752454 0.74904466
0.072268248 0.052661337 0.74811518
0.070791811 0.052567363 0.74704248
0.069273949 0.052468795 0.74573886
0.067665778 0.052359991 0.74391478
0.065952085 0.052239474 0.74149555
0.064017989 0.052094191 0.73781675
0.12761489 0.056901768 0.72378278
0.12685218 0.056915436 0.73092091
0.12582624 0.056886718 0.73460549
0.12474836 0.056849048 0.73752701
0.12363228 0.056804709 0.73989064
0.12246982 0.056752898 0.74163777
0.12128635 0.056697443 0.74308443
0.12007778 0.056638055 0.74420446
0.11885364 0.056576069 0.74511695
0.11762804 0.056513619 0.74598008
0.11640631 0.056451462 0.74685127
0.11518126 0.056388572 0.74765807
0.11395723 0.056325626 0.74844646
0.11273581 0.056262802 0.74923271
0.11151642 0.056200031 0.75001144
0.11029614 0.056136925 0.75075579
0.10907203 0.056073166 0.75144058
0.10784616 0.056008965 0.75208724
0.10659734 0.055941701 0.75250906
0.10534542 0.055873923 0.75289059
0.10408481 0.055804931 0.75318551
0.10282466 0.055735968 0.75347525
0.10154992 0.055665158 0.75363475
0.10027468 0.055594198 0.75378507
0.098997258 0.055522997 0.75391364
0.097716145 0.055451255 0.75400901
0.096433587 0.055379398 0.75409037
0.095157236 0.0553082 0.75421774
0.093877129 0.055236552 0.75431293
0.092600666 0.055165313 0.75443327
0.091320127 0.05509359 0.75451994
0.09003263 0.055020999 0.75455332
0.088744104 0.054948319 0.75457811
0.087453604 0.05487543 0.75458831
0.086150981 0.05480114 0.75451243
0.084836155 0.054725479 0.75435328
0.083509482 0.054648589 0.75411624
0.0821824 0.054571643 0.75388241
0.080825351 0.054491471 0.7534523
0.079438783 0.054408167 0.75283581
0.078043535 0.054324009 0.752177
0.076638415 0.054238837 0.75146955
0.07522127 0.054152615 0.75070107
0.073799774 0.054065999 0.74992263
0.072365277 0.053978153 0.74908018
0.070918344 0.053889114 0.7481792
0.069461897 0.053799272 0.74723995
0.067959547 0.053704791 0.74604219
0.066404469 0.053604938 0.74455345
0.064698398 0.053489745 0.74219865
0.062776744 0.053352576 0.73862505
0.059983153 0.053126305 0.73004913
0.12886633 0.058317062 0.72342479
0.12811476 0.058320384 0.73085934
0.12709904 0.05828689 0.73474425
0.12602139 0.058244314 0.73772252
0.12489945 0.058195218 0.74005836
0.12373237 0.058139849 0.74178106
0.12253356 0.058080062 0.74307811
0.12131577 0.058017582 0.74411553
0.12009232 0.057954155 0.74505192
0.11886306 0.057889823 0.74589109
0.11763128 0.057824999 0.74667311
0.11640581 0.057760675 0.74749064
0.11518316 0.057696588 0.74830717
0.11396406 0.057632703 0.74912995
0.11274298 0.057568446 0.74990505
0.11152466 0.057504296 0.75068003
0.11028423 0.057437461 0.75122273
0.10903349 0.057369415 0.75165284
0.1077728 0.057300117 0.75197935
0.10650432 0.057229869 0.75222605
0.10522791 0.057158746 0.75239563
0.10392948 0.057085164 0.75237066
0.10262632 0.057011038 0.75230634
0.10133149 0.056937851 0.75231355
0.10003088 0.056864079 0.7522732
0.098732956 0.056790508 0.75225562
0.097442247 0.056717779 0.75229645
0.096153207 0.0566452 0.75234932
0.09487012 0.056573231 0.75244731
0.093586482 0.056501187 0.75253838
0.092308432 0.056429747 0.75266916
0.091033377 0.056358524 0.75281882
0.089762487 0.056287777 0.75299537
0.088506639 0.05621843 0.75327671
0.087255388 0.056149594 0.75358379
0.08597891 0.056078158 0.75370455
0.084701858 0.056006622 0.75381821
0.08341603 0.055934165 0.75386858
0.082109235 0.0558597 0.75377506
0.08078976 0.055783991 0.75359815
0.079453208 0.055706646 0.75331205
0.078106269 0.055628318 0.75296444
0.076702401 0.055544522 0.75225484
0.075289086 0.05545995 0.75150108
0.073867619 0.055374734 0.75071293
0.07243406 0.055288441 0.7498666
0.070999853 0.055202197 0.74903524
0.069563881 0.055115908 0.74821144
0.068113141 0.055028334 0.74731606
0.066628233 0.05493769 0.74623471
0.065085411 0.054841761 0.7448321
0.063421786 0.054734819 0.74274909
0.06150832 0.054605056 0.73925519
0.058816474 0.054404058 0.7313503
0.12935726 0.059722897 0.73054409
0.12834963 0.059683714 0.73461658
0.12727764 0.059636664 0.73772645
0.12615082 0.059583053 0.74004912
0.1249686 0.05952315 0.74162698
0.12376545 0.059460662 0.74290067
0.12254536 0.05939617 0.74393344
0.12132097 0.059331041 0.74487817
0.12008797 0.059264895 0.74569386
0.11885379 0.059198458 0.7464661
0.11762252 0.059132218 0.74723977
0.11639948 0.059066638 0.74806929
0.11517487 0.059000853 0.74885309
0.113943 0.05893413 0.74953812
0.11270446 0.058866732 0.7501353
0.11145397 0.058798011 0.75059861
0.11018903 0.058727838 0.75091165
0.10889502 0.058654856 0.75094765
0.1075915 0.058580872 0.75089687
0.10628886 0.058507059 0.75085551
0.10500298 0.058434788 0.7509622
0.10371277 0.058362119 0.75102842
0.10243279 0.058290396 0.7511794
0.10115862 0.058219161 0.75137448
0.099879123 0.058147475 0.75151992
0.09859927 0.058075696 0.75165862
0.09731774 0.058003746 0.75177979
0.096036837 0.057931855 0.7519027
0.094753996 0.057859752 0.75200707
0.093465425 0.057787128 0.7520647
0.092176959 0.057714507 0.75212181
0.090887561 0.057641786 0.75217044
0.089594953 0.057568789 0.75219423
0.088300474 0.057495646 0.75220394
0.087006018 0.057422459 0.7522136
0.085713752 0.057349473 0.75223869
0.084431522 0.057277396 0.75233328
0.083166197 0.057206795 0.75254226
0.081907421 0.057136651 0.75279081
0.080647223 0.057066388 0.7530238
0.079353966 0.05699328 0.75303149
0.078027934 0.056917414 0.75282347
0.076694123 0.056840867 0.75256991
0.07533168 0.056761928 0.75213838
0.073931769 0.056679878 0.75147885
0.072498649 0.056595109 0.75062591
0.071053222 0.056509372 0.74971563
0.069628142 0.056425482 0.74895042
0.06819158 0.056340624 0.74813211
0.066741012 0.056254745 0.7472477
0.06526792 0.056167088 0.7462483
0.063738368 0.056074847 0.74493814
0.062100381 0.055973809 0.74302459
0.060149495 0.055847466 0.73934907
0.057018157 0.055625252 0.72902226
0.1305694 0.061123386 0.72982371
0.12957659 0.061078481 0.73418742
0.12851799 0.061027236 0.73753738
0.12737834 0.060968477 0.7397536
0.12619513 0.060905706 0.74135572
0.1249851 0.060840432 0.74257773
0.12376832 0.060774423 0.74367297
0.12253974 0.060707327 0.74459171
0.12130637 0.060639735 0.74542218
0.12006667 0.060571469 0.74615198
0.1188306 0.060503498 0.74689299
0.11759827 0.060435735 0.74764484
0.1163679 0.06036808 0.74838972
0.11511853 0.060298774 0.74891764
0.11386254 0.060228907 0.74936247
0.11259 0.060157627 0.74963218
0.11129785 0.060084783 0.7497068
0.11000453 0.060011785 0.74976826
0.10872389 0.059939817 0.74994385
0.10745014 0.059868366 0.75017625
0.10617507 0.05979684 0.75038952
0.10490295 0.059725489 0.75062186
0.10362814 0.059653919 0.75082409
0.10235292 0.059582323 0.75101691
0.10107868 0.05951076 0.75121218
0.09980268 0.059439063 0.75138706
0.09852168 0.059366945 0.75151664
0.097240783 0.059294865 0.75164318
0.09596052 0.059222747 0.75177145
0.094677761 0.059150487 0.75187665
0.093390636 0.059077866 0.75194591
0.092102081 0.059005182 0.75200236
0.090813234 0.058932405 0.75205529
0.089518256 0.058859199 0.75206178
0.088221505 0.058785863 0.75205535
0.086924888 0.058712527 0.7520501
0.085621186 0.058638673 0.75199491
0.084317647 0.058564834 0.75194228
0.083009578 0.05849063 0.7518599
0.081701383 0.058416445 0.75177884
0.080403239 0.058342997 0.75176728
0.079119854 0.058270656 0.7518543
0.077860691 0.058200058 0.75209844
0.076577514 0.058127709 0.75218105
0.075254522 0.058052443 0.75200617
0.073901728 0.057975054 0.75164622
0.07251782 0.057895366 0.75109935
0.071095578 0.057812937 0.75032687
0.069659181 0.057729561 0.74948466
0.068234473 0.057647094 0.74873179
0.066803873 0.057564203 0.74795997
0.065358095 0.057480231 0.74711442
0.063878171 0.057393894 0.74608606
0.062352519 0.057304375 0.74481356
0.060699277 0.057205781 0.74283296
0.058747318 0.057086013 0.73919165
0.13173617 0.062523015 0.72847152
0.13077705 0.062472578 0.73339951
0.1297261 0.062415894 0.73693484
0.12859254 0.062353652 0.73928422
0.12741126 0.062288117 0.740951
0.12620299 0.062220812 0.74222535
0.12498017 0.062152516 0.74327666
0.12375269 0.062083852 0.74423212
0.1225186 0.062014703 0.74507475
0.12127788 0.061945077 0.74581188
0.12003066 0.061875094 0.74645084
0.11878762 0.061805293 0.74710983
0.11755028 0.061735898 0.74780321
0.11628386 0.06166454 0.74817586
0.11501358 0.061593018 0.74849683
0.11373098 0.061520599 0.7486856
0.11244866 0.061448254 0.74887079
0.11117704 0.061376553 0.74915099
0.10990665 0.061304968 0.74943334
0.1086357 0.061233293 0.74970162
0.10736501 0.061161619 0.74996352
0.10609468 0.06109 0.7502203
0.10482314 0.061018288 0.75045848
0.10354908 0.060946394 0.75066793
0.10227382 0.060874473 0.75086093
0.1009992 0.060802549 0.75105351
0.099724904 0.06073064 0.75124305
0.098445207 0.060658392 0.75138378
0.097164489 0.060586069 0.75151211
0.095884204 0.060513768 0.75164032
0.094600782 0.060441267 0.75174075
0.093314663 0.060368612 0.75181794
0.092026144 0.060295805 0.75187498
0.090737455 0.060222983 0.75192928
0.089440875 0.060149647 0.75192422
0.088143736 0.060076308 0.75191528
0.086844929 0.060002826 0.75189483
0.085542895 0.059929211 0.75185215
0.084239766 0.059855472 0.75180292
0.082931951 0.059781436 0.75172275
0.081619494 0.059707135 0.75161302
0.080304734 0.059632745 0.75149041
0.078987114 0.059558094 0.75135183
0.077672735 0.059483726 0.75123793
0.076365486 0.059409756 0.7511732
0.075087927 0.059337586 0.75130022
0.073783167 0.059263788 0.75125206
0.072452106 0.059188332 0.75103992
0.071082778 0.059110567 0.75059557
0.069663525 0.059029747 0.74985462
0.068254262 0.05894956 0.74919057
0.066838585 0.058868982 0.74850267
0.065402113 0.058787111 0.74770588
0.063955724 0.058704693 0.74686748
0.062473681 0.058620065 0.74583966
0.060934421 0.058531985 0.74450403
0.059282422 0.058437075 0.74255395
0.05725513 0.058319312 0.73852819
0.13286208 0.063925371 0.72650367
0.13195911 0.063868344 0.73233587
0.13092466 0.063805938 0.73618573
0.1297956 0.063739635 0.73865843
0.12861614 0.063671157 0.74039447
0.12740903 0.063601553 0.74171853
0.12619145 0.063531563 0.74286205
0.12496007 0.063460976 0.74379736
0.12372565 0.063390322 0.7446593
0.12247723 0.063319057 0.74533081
0.12122611 0.063247681 0.74594599
0.11997242 0.063176215 0.74651015
0.11872497 0.063105077 0.74711889
0.11745556 0.06303294 0.74747759
0.1161847 0.062960736 0.74780875
0.11490344 0.062888056 0.74802452
0.11363352 0.062815979 0.748344
0.11236455 0.06274388 0.74866164
0.11109497 0.06267181 0.7489627
0.10982504 0.062599674 0.74925035
0.10855404 0.062527567 0.74951923
0.10728271 0.062455397 0.74977618
0.10601226 0.062383302 0.75003314
0.10474271 0.062311288 0.75028986
0.10347003 0.06223911 0.75051183
0.10219432 0.062166788 0.75070173
0.10091875 0.062094487 0.75088686
0.099643447 0.062022194 0.75106907
0.098366432 0.061949816 0.75123215
0.097086579 0.061877318 0.75136811
0.095806964 0.061804827 0.75150204
0.094521247 0.061732031 0.75158507
0.09323474 0.061659258 0.75165993
0.091946155 0.061586313 0.75171697
0.090655707 0.06151332 0.75175881
0.089361295 0.061440095 0.75177056
0.088064663 0.061366774 0.75176603
0.086764909 0.061293345 0.75173938
0.085463122 0.061219778 0.75169897
0.084160723 0.061146215 0.75165552
0.082850777 0.06107223 0.75156111
0.081538208 0.060998112 0.75145137
0.08022476 0.060923971 0.75133836
0.078905702 0.060849555 0.75119078
0.077586181 0.060775083 0.75104403
0.07626377 0.060700461 0.75088167
0.074938267 0.060625702 0.75070339
0.073624209 0.060551513 0.75060195
0.072311275 0.060477361 0.75050956
0.07099279 0.060402967 0.75038528
0.069634646 0.060326561 0.75002044
0.068239219 0.060248222 0.74943775
0.066830836 0.060169276 0.74878985
0.065418988 0.060090102 0.74813539
0.063993365 0.060010239 0.74741375
0.062538549 0.059928842 0.74653774
0.061041918 0.059845377 0.74543941
0.059504926 0.059759781 0.74413395
0.05780609 0.059665959 0.74194324
0.055651948 0.059548955 0.73725706
0.13311651 0.06526725 0.73089182
0.1320996 0.06519796 0.73509419
0.13099054 0.065127328 0.73790449
0.12981546 0.065055698 0.73974812
0.12861195 0.064983726 0.74115711
0.12739176 0.064911507 0.74230194
0.12616104 0.064839192 0.74327332
0.12492637 0.064766921 0.74415857
0.12367788 0.064694375 0.74484986
0.12242129 0.064621732 0.74542302
0.1211606 0.064549014 0.7459293
0.11989899 0.064476348 0.74640608
0.1186337 0.064403638 0.74682599
0.11736109 0.064330801 0.74715513
0.11609069 0.064258009 0.7474947
0.11481958 0.06418521 0.74781501
0.11354965 0.064112537 0.74813569
0.11228044 0.064039901 0.74845243
0.11101072 0.063967243 0.74875367
0.10974189 0.063894689 0.74905318
0.10847154 0.063822091 0.74932921
0.10720003 0.063749477 0.74958581
0.10592941 0.063676909 0.74984229
0.10465962 0.0636044 0.75009799
0.10338887 0.063531905 0.75033784
0.1021134 0.063459203 0.75053048
0.10083771 0.063386597 0.75071567
0.099561907 0.063313976 0.75089449
0.098284818 0.063241288 0.75105768
0.097007073 0.063168615 0.75121129
0.09572655 0.063095868 0.75133878
0.094441198 0.063022956 0.75142533
0.093154527 0.062950023 0.75149953
0.091865115 0.062876955 0.75155115
0.090573899 0.06280385 0.75158823
0.089280784 0.062730685 0.75161028
0.087984391 0.062657379 0.75160813
0.086682715 0.062583946 0.75156826
0.085379682 0.062510386 0.75151998
0.084076181 0.06243683 0.75146973
0.082766883 0.062363058 0.75138092
0.081455007 0.062289204 0.75127673
0.080142461 0.062215287 0.75117058
0.078822911 0.062141135 0.75102079
0.077499934 0.062066812 0.75085193
0.076173827 0.061992314 0.75066686
0.074846171 0.061917778 0.75047594
0.073516339 0.061843172 0.75027597
0.072185345 0.061768487 0.75007313
0.070855886 0.061693873 0.74988443
0.069530614 0.061619382 0.7497257
0.068172812 0.06154361 0.74937314
0.066795677 0.061467044 0.74891257
0.065398447 0.061389685 0.74834251
0.063989088 0.06131174 0.74771351
0.062564746 0.061233182 0.74701053
0.061101392 0.061153036 0.74609792
0.059602141 0.061071355 0.74499983
0.058035884 0.06098688 0.7435469
0.056297921 0.060895298 0.74116564
0.053787418 0.06077192 0.73456776
0.13421549 0.066671625 0.72857028
0.13325225 0.066593751 0.73365426
0.13217649 0.066517517 0.73700124
0.13100556 0.066442326 0.73895782
0.12980591 0.066367581 0.74046189
0.12859011 0.066293165 0.74169868
0.12736019 0.066218972 0.74271053
0.12612459 0.066144928 0.74361217
0.12487219 0.066071086 0.74428064
0.12361508 0.065997303 0.74486852
0.12235365 0.065923601 0.74538481
0.12108646 0.065850012 0.74581784
0.11981997 0.06577643 0.74624199
0.1185487 0.065702923 0.74659973
0.11727741 0.065629452 0.74694413
0.11600713 0.065556094 0.74728656
0.11473597 0.065482743 0.74760795
0.11346579 0.065409474 0.74792767
0.11219629 0.065336265 0.74824315
0.11092545 0.065263048 0.74853528
0.10965553 0.065189913 0.74882644
0.10838661 0.065116838 0.74911714
0.10711671 0.065043792 0.74938971
0.10584521 0.064970784 0.74963963
0.10457348 0.064897798 0.74987978
0.10330258 0.064824849 0.75011981
0.10203084 0.064751863 0.75034535
0.10075643 0.064678915 0.75054216
0.099481404 0.064606018 0.75072831
0.098205276 0.0645331 0.75090027
0.096927874 0.064460106 0.75105709
0.095646128 0.06438712 0.75117546
0.094361402 0.06431406 0.75126779
0.093074664 0.064240985 0.75134212
0.091784723 0.064167872 0.7513904
0.090492658 0.064094692 0.75142175
0.089199878 0.064021453 0.75144702
0.087899141 0.06394808 0.75141412
0.086598292 0.063874692 0.7513814
0.085295349 0.063801251 0.75133491
0.083991602 0.063727781 0.75128371
0.082682796 0.063654169 0.75119931
0.081370071 0.063580468 0.75109041
0.080056548 0.063506708 0.75097889
0.078738727 0.063432872 0.75084138
0.077414326 0.063358814 0.75066423
0.076088645 0.06328468 0.75048292
0.074761219 0.063210495 0.75029463
0.073428199 0.06313619 0.75007516
0.072095178 0.063061774 0.74986094
0.070755571 0.062987223 0.74961066
0.069417052 0.062912621 0.7493726
0.068076655 0.062838003 0.74912834
0.066718556 0.062762812 0.74878347
0.065340541 0.062687024 0.74832785
0.063955925 0.062610954 0.74784315
0.062553376 0.062534325 0.74726468
0.061118226 0.062456679 0.74651074
0.059650525 0.062377963 0.74558735
0.058132667 0.062297586 0.74440014
0.056529835 0.062214583 0.74276352
0.054729354 0.062125161 0.74006867
0.13524333 0.068087101 0.72512418
0.134378 0.067995608 0.73177642
0.13334581 0.067911312 0.73583633
0.1321923 0.067831673 0.73809326
0.13099827 0.067753755 0.73972028
0.12978694 0.067676768 0.74105495
0.12855512 0.067600578 0.74207622
0.12731649 0.067524821 0.74297088
0.12606627 0.067449585 0.74369007
0.12480893 0.067374595 0.74429697
0.12354436 0.067299932 0.74479675
0.12227707 0.067225397 0.74524665
0.12100891 0.067151025 0.74566925
0.11973693 0.067076772 0.74603486
0.11846483 0.067002609 0.74638534
0.11719345 0.066928551 0.74673069
0.11592322 0.066854551 0.7470752
0.11465278 0.066780612 0.74740529
0.11338275 0.066706732 0.74772799
0.11211248 0.066632941 0.74803728
0.11084215 0.066559233 0.74833572
0.1095718 0.066485614 0.74862409
0.10830244 0.066411972 0.74891222
0.10703335 0.06633848 0.74919355
0.10576347 0.066264957 0.74945879
0.10449247 0.066191539 0.74970633
0.10322236 0.066118173 0.74995387
0.10194964 0.066044815 0.75017208
0.10067704 0.065971524 0.75038469
0.099402778 0.065898269 0.75057775
0.098126061 0.06582503 0.75074542
0.096848823 0.065751821 0.75090426
0.095566422 0.065678567 0.75101799
0.094282232 0.065605357 0.75111514
0.092995472 0.065532178 0.75118977
0.091707401 0.065458953 0.75125265
0.090415686 0.065385729 0.75128698
0.08912199 0.065312453 0.75130594
0.087822862 0.065239184 0.75128514
0.086519532 0.065165788 0.75123501
0.085214771 0.06509243 0.75117612
0.083909571 0.065019026 0.75111568
0.082599498 0.064945556 0.75102341
0.081285365 0.064872026 0.75090569
0.079970747 0.064798445 0.75078779
0.078653909 0.064724848 0.75065798
0.077328496 0.064651102 0.75047511
0.076002404 0.064577296 0.75029212
0.074673153 0.064503461 0.75009328
0.073340341 0.064429492 0.74987638
0.072003819 0.064355433 0.74964136
0.070663981 0.064281292 0.74939102
0.069323197 0.064207144 0.74914032
0.067981072 0.064132869 0.74888718
0.066627912 0.064058408 0.74857354
0.065272003 0.063983813 0.74825013
0.063898802 0.063908875 0.7478323
0.062512517 0.063833609 0.74734741
0.061107755 0.063757911 0.74676639
0.059661809 0.06368129 0.7459631
0.058180358 0.063603863 0.74497658
0.056632683 0.063524932 0.74364096
0.054984394 0.063443705 0.74177688
0.052915234 0.063353114 0.73765123
0.13545738 0.069407329 0.72915059
0.1344848 0.069311015 0.73419875
0.1333724 0.069224343 0.73710334
0.1321843 0.069142759 0.73886645
0.13097347 0.069062948 0.74025422
0.1297469 0.068984412 0.74137926
0.12851135 0.06890668 0.74234396
0.12726147 0.068829864 0.74309331
0.12600222 0.068753734 0.74370021
0.12473574 0.068678036 0.74419791
0.12346944 0.068602562 0.74467719
0.12219963 0.068527341 0.74509877
0.12092777 0.068452269 0.74548155
0.11965374 0.06837748 0.74582624
0.11838093 0.068302676 0.74617106
0.11710962 0.068227954 0.74651849
0.11584 0.068153337 0.74687111
0.11457027 0.068078808 0.74720973
0.11329938 0.068004392 0.74752504
0.11202861 0.067930035 0.74783099
0.11075888 0.067855775 0.7481367
0.10948951 0.06778159 0.74843532
0.10821981 0.067707472 0.74872136
0.1069497 0.067633457 0.74899459
0.10568053 0.067559473 0.74926758
0.10441232 0.067485541 0.74954051
0.10314126 0.067411736 0.7497806
0.1018676 0.06733802 0.74999177
0.10059462 0.067264333 0.75020224
0.099321246 0.067190722 0.7504034
0.098045155 0.067117155 0.75057703
0.096768469 0.067043662 0.75074089
0.095485359 0.066970214 0.75084996
0.094202287 0.066896856 0.75095636
0.092916019 0.066823512 0.75103545
0.091627866 0.066750161 0.75109845
0.090337828 0.06667687 0.75114578
0.089042239 0.066603556 0.75115138
0.087743737 0.066530295 0.75113565
0.086441308 0.06645707 0.75109261
0.085135639 0.066383779 0.75102764
0.083827943 0.066310495 0.75095046
0.082519963 0.066237174 0.75087315
0.081207052 0.066163868 0.75076449
0.079889119 0.066090524 0.75062484
0.078568086 0.066017121 0.7504679
0.077242002 0.065943718 0.75028175
0.075915702 0.065870225 0.75009859
0.074584685 0.065796718 0.74988943
0.073248871 0.065723144 0.74965477
0.071912065 0.065649487 0.74941939
0.070572324 0.065575823 0.7491709
0.069230661 0.06550207 0.74891645
0.06788709 0.065428264 0.74865597
0.066540778 0.065354377 0.74838465
0.065184623 0.065280363 0.74806094
0.063825287 0.065206304 0.74772537
0.062454171 0.065132052 0.74732864
0.061056681 0.065057471 0.74678862
0.059644938 0.064982668 0.74617893
0.058189414 0.064907312 0.74533516
0.056690987 0.064831331 0.74426955
0.05511288 0.064754307 0.74278581
0.053413555 0.064675592 0.74066973
0.13645861 0.070836261 0.7252568
0.13559017 0.070719816 0.73200852
0.13453932 0.070621669 0.7358886
0.13336344 0.070535257 0.73788518
0.13216154 0.070451774 0.73944259
0.13093962 0.07037048 0.74066919
0.12970117 0.070290878 0.74163115
0.12845248 0.070212424 0.74242467
0.1271943 0.070134833 0.74306828
0.125929 0.070058003 0.74360108
0.12466267 0.069981471 0.74410009
0.12339175 0.069905356 0.74452668
0.12211817 0.069829583 0.74490649
