# .PCD v0.7 - Point Cloud Data file format
VERSION 0.7
FIELDS x y z
SIZE 4 4 4
TYPE F F F
COUNT 1 1 1
WIDTH 1454
HEIGHT 1
VIEWPOINT 0 0 0 1 0 0 0
POINTS 1454
DATA ascii
0.14777212 0.1116357 0.71531343
0.14911494 0.11167483 0.71556413
0.1504592 0.11171434 0.71581733
0.15179943 0.11175022 0.71604717
0.1531482 0.11179173 0.71631318
0.15450636 0.11183933 0.71661818
0.15585867 0.11188195 0.71689129
0.15720455 0.11191929 0.71713054
0.1585453 0.11195239 0.71734267
0.15990812 0.11200043 0.71765041
0.16127232 0.11204864 0.71795934
0.16262378 0.11208731 0.71820712
0.16396946 0.11212141 0.71842563
0.16532589 0.11216228 0.71868747
0.1666941 0.11221043 0.71899605
0.16805409 0.11225235 0.71926463
0.16940798 0.11228959 0.71950322
0.17076285 0.1123269 0.7197423
0.17212521 0.11236853 0.72000909
0.17349532 0.11241457 0.72030407
0.17486681 0.11246081 0.72060037
0.17621616 0.11249223 0.72080171
0.17756717 0.11252425 0.72100687
0.17893623 0.11256716 0.72128177
0.18031299 0.11261425 0.72158355
0.18168561 0.1126581 0.72186452
0.18306382 0.11270477 0.72216356
0.18446673 0.11276589 0.72255516
0.18585011 0.11281428 0.72286522
0.1872811 0.11289071 0.72335494
0.18866229 0.11293624 0.72364676
0.19004948 0.11298475 0.72395754
0.19131638 0.11296155 0.72380888
0.19269453 0.11300391 0.72408032
0.19398113 0.11299238 0.72400641
0.082516693 0.11552337 0.7317642
0.082895562 0.11422617 0.72354734
0.083738178 0.11359831 0.71957022
0.084587082 0.11299801 0.71576774
0.085473098 0.1124646 0.71238893
0.086375877 0.11196873 0.70924795
0.087322533 0.11154338 0.70655364
0.088318639 0.11119253 0.70433122
0.089522503 0.11110949 0.70380521
0.090821005 0.11114459 0.70402753
0.092132233 0.11119407 0.70434099
0.093439147 0.11123708 0.70461339
0.094743147 0.11127551 0.70485681
0.096052438 0.11131906 0.70513266
0.09736041 0.11135995 0.70539171
0.098667793 0.11139912 0.70563984
0.099983238 0.11144628 0.70593858
0.1012934 0.11148644 0.70619297
0.10260215 0.11152408 0.70643139
0.10391553 0.11156576 0.70669538
0.10523532 0.11161321 0.70699596
0.10654935 0.11165351 0.70725125
0.10786421 0.1116937 0.70750582
0.10918193 0.11173589 0.70777303
0.11049967 0.11177712 0.70803422
0.11182055 0.11182055 0.70830929
0.11314359 0.11186513 0.7085917
0.1144687 0.11191074 0.7088806
0.11579553 0.11195701 0.70917368
0.11712247 0.11200237 0.70946097
0.11844568 0.11204321 0.70971972
0.11977042 0.11208462 0.70998204
0.12109536 0.11212533 0.71023989
0.12241903 0.11216404 0.71048504
0.12374344 0.1122026 0.71072936
0.12506871 0.11224115 0.7109735
0.1263928 0.11227787 0.71120608
0.12771925 0.11231592 0.71144718
0.12903291 0.11234208 0.71161288
0.13035959 0.11237895 0.71184641
0.13168639 0.11241521 0.71207607
0.13301334 0.11245089 0.71230209
0.1343458 0.1124905 0.71255302
0.13567038 0.11252283 0.71275777
0.13699575 0.1125552 0.71296281
0.13832779 0.11259238 0.71319836
0.13965395 0.11262415 0.71339959
0.14099102 0.11266406 0.71365237
0.1423251 0.11270088 0.71388561
0.14366268 0.11273977 0.71413195
0.14499652 0.11277507 0.71435559
0.14633325 0.11281198 0.71458936
0.14767885 0.11285502 0.71486199
0.14902012 0.11289404 0.71510911
0.15035933 0.11293083 0.71534222
0.1517026 0.11297002 0.71559042
0.15304345 0.11300677 0.71582323
0.15439202 0.11304855 0.71608788
0.15574114 0.11309004 0.71635067
0.15709217 0.11313222 0.71661788
0.15843946 0.11317103 0.71686375
0.15978163 0.11320561 0.71708274
0.16112658 0.11324158 0.71731055
0.1624831 0.11328503 0.7175858
0.16382521 0.11331784 0.71779364
0.16518222 0.11336035 0.71806288
0.1665431 0.11340483 0.71834469
0.16789763 0.11344434 0.71859497
0.16924906 0.11348117 0.71882826
0.17060679 0.11352163 0.7190845
0.17197168 0.1135662 0.71936685
0.17333098 0.11360645 0.71962178
0.17468558 0.11364304 0.71985358
0.17604961 0.11368517 0.72012043
0.17741376 0.11372676 0.72038394
0.17877446 0.11376557 0.72062969
0.18013254 0.11380214 0.72086138
0.18149991 0.11384403 0.72112674
0.1828683 0.11388595 0.72139227
0.18423288 0.11392492 0.7216391
0.18560268 0.11396655 0.72190285
0.18696496 0.11400302 0.72213382
0.18832664 0.11403862 0.72235936
0.18970346 0.11408284 0.72263944
0.1910834 0.11412831 0.72292745
0.19246747 0.11417562 0.72322708
0.19385982 0.11422716 0.7235536
0.082481362 0.11679361 0.73145092
0.082880862 0.11551113 0.72341901
0.083724894 0.11487835 0.71945608
0.084562778 0.11425658 0.71556211
0.085467897 0.11374299 0.7123456
0.086378187 0.1132514 0.7092669
0.087318234 0.11281261 0.70651883
0.088305846 0.11244701 0.70422918
0.089513518 0.11236803 0.70373458
0.090815559 0.11240807 0.70398533
0.092124075 0.11245491 0.70427865
0.093428835 0.11249594 0.70453566
0.094733611 0.1125359 0.70478588
0.096039891 0.11257656 0.70504051
0.097347349 0.11261752 0.70529705
0.098656803 0.1126597 0.70556122
0.099966809 0.11270144 0.70582259
0.10127712 0.11274245 0.70607948
0.1025895 0.11278472 0.70634419
0.10390146 0.11282551 0.70659965
0.10521968 0.11287201 0.70689088
0.1065338 0.11291307 0.70714802
0.10785107 0.11295645 0.70741969
0.10916813 0.11299858 0.70768356
0.11048725 0.11304187 0.70795465
0.11180906 0.11308688 0.70823652
0.11313232 0.11313232 0.70852113
0.11445756 0.11317871 0.70881164
0.11578459 0.11322582 0.70910668
0.11710906 0.11326942 0.70937973
0.11843433 0.11331285 0.70965171
0.11975703 0.11335291 0.70990264
0.12108105 0.11339337 0.71015602
0.1224046 0.11343253 0.7104013
0.12372777 0.11347055 0.71063936
0.12505381 0.11351038 0.7108888
0.12638108 0.11355051 0.71114016
0.12769687 0.11357962 0.71132249
0.1290139 0.11360925 0.71150804
0.13033517 0.11364199 0.71171308
0.13166092 0.11367797 0.71193838
0.13298951 0.11371566 0.71217448
0.13431832 0.11375284 0.71240729
0.13564302 0.11378585 0.712614
0.13696852 0.11381891 0.71282107
0.13830118 0.11385725 0.71306121
0.13963117 0.1138927 0.71328324
0.14096224 0.11392839 0.7135067
0.14229697 0.11396635 0.71374446
0.14363255 0.11400431 0.71398216
0.14496973 0.11404286 0.71422362
0.1463078 0.11408141 0.71446502
0.14764614 0.11411951 0.71470368
0.14898658 0.11415854 0.71494812
0.15033065 0.11419968 0.71520573
0.15166977 0.11423638 0.71543556
0.15301317 0.11427566 0.71568161
0.15436041 0.11431712 0.71594125
0.15570779 0.11435801 0.71619731
0.15705639 0.11439911 0.71645468
0.15840219 0.11443751 0.71669519
0.15974236 0.11447124 0.71690649
0.16109018 0.11450989 0.71714848
0.16243672 0.11454701 0.717381
0.16378735 0.11458641 0.7176277
0.16514224 0.11462814 0.71788913
0.16650036 0.11467145 0.71816033
0.16785739 0.11471336 0.71842277
0.16921254 0.11475333 0.71867311
0.17056155 0.11478857 0.71889383
0.17192592 0.11483354 0.71917546
0.17328572 0.11487481 0.7194339
0.17463902 0.11491117 0.71966165
0.17600521 0.11495544 0.71993887
0.17736278 0.11499345 0.72017694
0.17872575 0.11503439 0.72043335
0.18009199 0.11507683 0.72069913
0.18145807 0.11511856 0.7209605
0.18282227 0.11515852 0.72121072
0.18418647 0.1151979 0.72145736
0.18555619 0.11524016 0.72172201
0.18693006 0.11528439 0.72199905
0.1882993 0.11532518 0.72225446
0.18967412 0.11536879 0.72252762
0.19105677 0.11541655 0.72282672
0.19243628 0.11546177 0.7231099
0.19381027 0.1155031 0.7233687
0.082451187 0.1180701 0.73118329
0.082866944 0.11679672 0.72329754
0.083705612 0.11614965 0.71929038
0.084542811 0.11552033 0.71539313
0.085453391 0.1150087 0.71222472
0.086381264 0.11453516 0.70929217
0.087313838 0.11408159 0.7064833
0.088296287 0.11370528 0.70415294
0.089506365 0.11362864 0.70367831
0.090809517 0.11367065 0.70393848
0.092114158 0.11371334 0.70420283
0.093418345 0.11375432 0.70445657
0.09472242 0.11379404 0.70470262
0.096027695 0.11383415 0.70495099
0.097335041 0.11387563 0.70520788
0.098643608 0.11391746 0.70546687
0.09995167 0.11395764 0.70571572
0.10126077 0.11399798 0.70596552
0.10257552 0.11404359 0.70624799
0.10388826 0.11408588 0.70650989
0.10520155 0.11412774 0.70676911
0.10651758 0.11417153 0.70704031
0.10783523 0.11421602 0.7073158
0.10915284 0.11425941 0.7075845
0.11047235 0.11430376 0.70785916
0.1117961 0.11435144 0.70815444
0.11311961 0.11439779 0.7084415
0.11444481 0.11444481 0.70873266
0.11577142 0.11449218 0.70902598
0.11709639 0.1145369 0.70930296
0.11841858 0.11457798 0.70955735
0.11974237 0.1146197 0.70981574
0.12106267 0.11465724 0.7100482
0.12238478 0.11469568 0.71028626
0.12370934 0.1147356 0.7105335
0.12503567 0.11477633 0.71078569
0.12636107 0.11481538 0.71102756
0.12767285 0.1148414 0.71118867
0.12899631 0.11487731 0.71141106
0.13031618 0.11490934 0.71160942
0.1316364 0.11494105 0.71180576
0.13296111 0.11497603 0.71202242
0.1342888 0.1150129 0.71225071
0.13561414 0.11504707 0.71246231
0.13693996 0.115081 0.71267241
0.13827169 0.11511923 0.71290916
0.13960315 0.11515652 0.71314013
0.14093372 0.1151924 0.71336234
0.14226678 0.11522965 0.71359301
0.14360149 0.11526756 0.71382779
0.14493808 0.1153063 0.71406764
0.14627899 0.11534776 0.71432441
0.14761469 0.11538441 0.71455139
0.14895329 0.11542267 0.71478838
0.15029901 0.11546577 0.71505523
0.15163767 0.11550274 0.71528417
0.15297998 0.11554184 0.71552634
0.15432665 0.11558355 0.71578467
0.15567185 0.11562349 0.71603197
0.15701798 0.11566345 0.71627945
0.15836138 0.11570076 0.71651047
0.15969655 0.11573151 0.71670091
0.16103476 0.11576395 0.71690178
0.16238156 0.11580199 0.7171374
0.16375972 0.11586162 0.71750671
0.16509822 0.11589248 0.71769774
0.16643789 0.11592367 0.71789092
0.16779403 0.11596576 0.71815157
0.16916031 0.11601416 0.71845132
0.17050898 0.11604984 0.71867228
0.17186613 0.11609071 0.71892536
0.17322432 0.11613166 0.71917897
0.17458282 0.11617221 0.71943009
0.17595498 0.11622119 0.71973342
0.17732008 0.11626481 0.72000355
0.17868653 0.11630868 0.72027522
0.18005663 0.11635429 0.72055763
0.1814142 0.11639119 0.72078615
0.18276769 0.11642497 0.72099537
0.18413131 0.11646468 0.7212413
0.1855105 0.11651362 0.72154433
0.18687572 0.11655314 0.72178912
0.18826862 0.11660928 0.7221368
0.18962477 0.11664204 0.72233963
0.19101907 0.11669766 0.72268409
0.19240734 0.11674886 0.72300118
0.1938014 0.11680287 0.72333562
0.08241643 0.11933899 0.73087507
0.082853027 0.11808188 0.72317606
0.083688475 0.11742336 0.71914309
0.084524497 0.11678576 0.71523815
0.085420825 0.1162494 0.71195328
0.086362049 0.11578912 0.7091344
0.087294273 0.11533039 0.70632499
0.088281676 0.11495672 0.70403647
0.089506842 0.11489885 0.70368207
0.090801783 0.11493093 0.70387852
0.092106864 0.11497477 0.70414704
0.093408354 0.11501301 0.70438123
0.094711885 0.11505269 0.70462424
0.096016131 0.11509218 0.70486611
0.097322196 0.1151328 0.70511484
0.098630086 0.11517449 0.70537019
0.099939249 0.11521658 0.70562798
0.10124762 0.11525673 0.70587385
0.1025619 0.11530251 0.70615423
0.10387561 0.11534654 0.70642388
0.10518745 0.11538745 0.7066744
0.10650053 0.11542872 0.70692718
0.10781719 0.11547285 0.70719743
0.10913631 0.11551855 0.70747733
0.11045856 0.11556647 0.70777082
0.11178149 0.115614 0.70806187
0.1131051 0.11566115 0.70835066
0.11443093 0.11570949 0.70864671
0.11575783 0.11575783 0.70894277
0.11708504 0.11580542 0.70923424
0.11840403 0.11584394 0.70947015
0.11972287 0.11588149 0.70970011
0.12104236 0.11591887 0.70992905
0.12236217 0.11595578 0.71015507
0.12368579 0.11599549 0.71039826
0.1250103 0.1160352 0.7106415
0.12633675 0.1160759 0.71089071
0.12765129 0.11610494 0.71106857
0.128969 0.11613627 0.71126044
0.1302948 0.11617418 0.71149266
0.13161439 0.11620587 0.71168673
0.13293491 0.11623777 0.71188211
0.13425779 0.1162711 0.7120862
0.1355848 0.11630734 0.71230817
0.13691178 0.11634287 0.71252578
0.13824265 0.11638101 0.71275938
0.1395736 0.11641853 0.71298915
0.14090468 0.11645547 0.71321535
0.14223781 0.11649341 0.71344775
0.14357163 0.11653124 0.71367937
0.1449087 0.116571 0.71392292
0.14625052 0.11661384 0.7141853
0.14758363 0.11664908 0.71440107
0.14892048 0.11668661 0.71463096
0.15026405 0.11672872 0.71488887
0.15160361 0.11676703 0.71512347
0.15294629 0.11680708 0.71536875
0.15429004 0.11684726 0.71561486
0.15562883 0.11688306 0.71583408
0.15698211 0.11692906 0.71611583
0.15833169 0.11697157 0.71637619
0.15966678 0.11700278 0.71656728
0.16102105 0.11704743 0.71684074
0.1623745 0.11709077 0.71710616
0.1637225 0.11712953 0.71734357
0.16507624 0.11717176 0.71760219
0.16641685 0.11720408 0.71780014
0.1677701 0.11724474 0.71804917
0.16913258 0.11729117 0.71833354
0.17047705 0.11732451 0.71853769
0.17183635 0.11736747 0.71880078
0.17320876 0.11741867 0.71911436
0.17457357 0.11746401 0.719392
0.17592542 0.11750001 0.71961248
0.17730255 0.11755224 0.71993238
0.17864627 0.11758173 0.72011298
0.18002103 0.11763107 0.72041517
0.18138771 0.11767446 0.72068089
0.18275322 0.11771648 0.72093827
0.18412228 0.11776018 0.72120589
0.18549035 0.11780264 0.72146595
0.18686455 0.11784837 0.72174603
0.18823707 0.11789242 0.7220158
0.18961295 0.11793795 0.72229463
0.19099331 0.11798563 0.72258663
0.19239074 0.11804313 0.72293878
0.19378959 0.11810073 0.72329152
0.082376271 0.12059886 0.73051894
0.082833454 0.11935844 0.72300518
0.083665945 0.1186889 0.7189495
0.084525704 0.11807789 0.71524835
0.085422538 0.11753627 0.71196753
0.086346872 0.11704798 0.70900977
0.087284617 0.11659186 0.70624685
0.088282526 0.11622807 0.70404321
0.089500435 0.11616014 0.7036317
0.090797372 0.11619523 0.70384431
0.092097834 0.11623382 0.70407802
0.093398638 0.11627177 0.70430791
0.094701014 0.11631064 0.70454335
0.096004643 0.11635 0.70478177
0.097309768 0.11639012 0.70502478
0.098616235 0.11643078 0.70527112
0.099925175 0.11647329 0.70552862
0.10123521 0.11651599 0.7057873
0.1025465 0.11655907 0.70604819
0.1038604 0.11660401 0.70632041
0.10517383 0.11664733 0.70658284
0.10648524 0.11668742 0.70682567
0.1077988 0.11672887 0.70707679
0.10911814 0.11677556 0.70735955
0.11043943 0.11682322 0.70764828
0.11176386 0.11687306 0.70795017
0.1130887 0.11692221 0.7082479
0.11441293 0.11696965 0.70853525
0.11573887 0.11701775 0.70882666
0.11706232 0.11706232 0.70909661
0.11838471 0.11710488 0.7093544
0.11970276 0.11714228 0.70958096
0.12102169 0.11717973 0.70980781
0.12234104 0.1172168 0.7100324
0.12366127 0.11725395 0.71025741
0.12498516 0.11729377 0.71049857
0.12631005 0.1173337 0.71074051
0.12763032 0.11736859 0.71095181
0.12894751 0.11739998 0.71114194
0.13027021 0.11743571 0.71135837
0.13159063 0.11746871 0.71155828
0.13291205 0.11750197 0.71175975
0.13423485 0.11753577 0.71196449
0.13555849 0.11756968 0.71216989
0.13688549 0.11760585 0.71238899
0.13821366 0.11764234 0.71261001
0.13954408 0.11768003 0.71283835
0.14087608 0.11771837 0.71307057
0.14221045 0.11775798 0.71331048
0.14354423 0.11779638 0.71354312
0.14487897 0.11783489 0.71377641
0.14621709 0.11787545 0.7140221
0.14755049 0.11791153 0.71424061
0.14888853 0.11795065 0.7144776
0.15022889 0.11799093 0.71472156
0.15156837 0.11802983 0.71495724
0.15291135 0.11807078 0.71520531
0.15425524 0.11811176 0.71545351
0.15559579 0.1181495 0.71568215
0.15694356 0.11819206 0.71593994
0.15829219 0.11823457 0.71619743
0.15964305 0.11827805 0.71646082
0.16098274 0.11831262 0.71667022
0.16233243 0.11835393 0.71692044
0.16368376 0.11839576 0.71717381
0.16504335 0.11844288 0.71745926
0.16639434 0.11848313 0.71770304
0.16774023 0.11851916 0.71792132
0.16908635 0.1185548 0.7181372
0.17045653 0.11860663 0.7184512
0.17181721 0.11865114 0.71872073
0.17316009 0.11868276 0.7189123
0.17453177 0.11873351 0.71921974
0.17589797 0.11877981 0.71950018
0.17725128 0.11881679 0.71972418
0.17862202 0.11886483 0.72001523
0.17999338 0.11891259 0.72030449
0.1813584 0.11895551 0.72056448
0.1827306 0.11900248 0.72084904
0.18410152 0.11904798 0.72112459
0.18547124 0.11909206 0.72139162
0.18684398 0.11913745 0.72166657
0.18822816 0.11918946 0.72198159
0.18960078 0.11923348 0.72224826
0.19098243 0.11928254 0.72254544
0.19237921 0.11934032 0.72289544
0.19378401 0.11940227 0.72327071
0.08233989 0.12186304 0.73019636
0.08281076 0.12062985 0.72280711
0.083640583 0.11994968 0.71873158
0.084497727 0.11932886 0.71501166
0.085403971 0.11879499 0.71181279
0.086332314 0.11830724 0.7088902
0.087281905 0.11786243 0.70622492
0.088281758 0.11749731 0.70403713
0.089493409 0.11742043 0.70357651
0.090789065 0.11745439 0.70377994
0.092088111 0.11749173 0.70400369
0.093387857 0.11752893 0.70422661
0.094688617 0.11756641 0.70445114
0.095993005 0.11760733 0.70469636
0.097297616 0.11764745 0.70493674
0.098603472 0.11768802 0.70517981
0.099911422 0.11773002 0.70543152
0.10122064 0.11777244 0.70568568
0.10252947 0.11781337 0.70593095
0.10384224 0.11785775 0.7061969
0.10515903 0.11790558 0.70648348
0.10647105 0.11794697 0.7067315
0.10778678 0.11799145 0.70699799
0.10910623 0.1180389 0.7072823
0.11042545 0.11808501 0.70755863
0.11174577 0.11813124 0.70783561
0.11306978 0.11818028 0.70812947
0.11439401 0.11822845 0.70841807
0.11571787 0.11827517 0.70869803
0.11703942 0.11831854 0.70895791
0.11836045 0.11836045 0.70920902
0.11968024 0.11840024 0.70944744
0.12099908 0.11843825 0.70967519
0.12231906 0.11847658 0.70990485
0.12363911 0.11851418 0.71013016
0.12496062 0.11855238 0.71035904
0.12628618 0.11859362 0.71060616
0.12761334 0.11863551 0.71085715
0.12892805 0.11866512 0.7110346
0.13024594 0.11869703 0.71122581
0.13156626 0.11873052 0.7114265
0.13288854 0.11876512 0.7116338
0.13421199 0.11880008 0.71184325
0.13553709 0.11883583 0.71205747
0.13686354 0.1188721 0.71227479
0.1381883 0.11890621 0.71247917
0.13951676 0.11894286 0.71269876
0.14084901 0.11898204 0.71293354
0.14218347 0.11902235 0.71317512
0.14351577 0.11906017 0.71340168
0.14485036 0.11909918 0.71363544
0.14618725 0.11913939 0.71387637
0.14752425 0.11917898 0.71411359
0.148862 0.11921849 0.71435034
0.15020101 0.11925831 0.71458894
0.15153809 0.11929594 0.71481442
0.15287992 0.11933664 0.71505833
0.15422598 0.11937994 0.71531773
0.1555665 0.11941826 0.71554738
0.15691417 0.1194614 0.71580589
0.15826017 0.11950258 0.71605259
0.15961212 0.11954754 0.716322
0.16096026 0.11958894 0.71657008
0.16231118 0.11963174 0.71682656
0.16366783 0.11967805 0.71710402
0.16501895 0.11971962 0.71735311
0.16637608 0.11976489 0.71762431
0.16773638 0.11981171 0.71790487
0.16907737 0.11984412 0.71809906
0.17044355 0.11989375 0.71839648
0.17180486 0.11993925 0.71866906
0.17314889 0.11997207 0.71886575
0.17451857 0.12002207 0.71916533
0.17588091 0.1200663 0.71943039
0.1772393 0.12010722 0.71967554
0.17860897 0.12015513 0.7199626
0.17998019 0.12020338 0.72025174
0.18134788 0.12024859 0.72052264
0.18271285 0.12029138 0.72077906
0.18407978 0.12033484 0.72103947
0.18545486 0.12038298 0.7213279
0.18682458 0.12042699 0.72159159
0.18821612 0.12048437 0.72193539
0.18959336 0.12053186 0.72222
0.1909682 0.12057719 0.72249162
0.1923669 0.12063687 0.72284919
0.19376621 0.12069613 0.72320426
0.082304306 0.12312724 0.72988075
0.082787417 0.12189958 0.72260338
0.083621584 0.12121889 0.71856833
0.084488191 0.12060528 0.71493095
0.085393839 0.12006502 0.71172833
0.086324312 0.11957516 0.70882452
0.08728864 0.11914581 0.7062794
0.088278838 0.11876362 0.70401382
0.089489371 0.11868449 0.70354474
0.090780318 0.11871272 0.70371211
0.09207958 0.11875091 0.70393848
0.093378268 0.11878732 0.70415431
0.094677232 0.1188231 0.70436645
0.09598247 0.11886571 0.70461899
0.097287446 0.11890689 0.70486307
0.098588519 0.11894228 0.70507288
0.099896759 0.11898531 0.70532799
0.10120463 0.11902682 0.7055741
0.10251185 0.11906656 0.70580959
0.10382754 0.11911503 0.70609695
0.10513698 0.11915525 0.70633537
0.10645089 0.1191995 0.70659769
0.10776903 0.11924738 0.70688152
0.10908978 0.11929701 0.70717573
0.11040981 0.1193447 0.70745844
0.11172862 0.11939002 0.70772702
0.11305138 0.11943847 0.70801425
0.1143748 0.11948653 0.7082991
0.11569904 0.11953437 0.7085827
0.11701787 0.11957564 0.70882738
0.11833739 0.11961672 0.70907086
0.11965889 0.11965889 0.7093209
0.12097667 0.11969649 0.70954376
0.12229781 0.1197366 0.70978153
0.12361792 0.11977488 0.71000844
0.12493737 0.11981173 0.71022689
0.12625986 0.11985073 0.7104581
0.12758531 0.11989172 0.71070105
0.12890515 0.11992668 0.71090829
0.13022202 0.11995821 0.71109521
0.1315421 0.11999207 0.7112959
0.13286382 0.12002674 0.71150142
0.13418694 0.120062 0.71171045
0.13551261 0.12009884 0.71192884
0.1368386 0.12013529 0.71214491
0.13816288 0.12016957 0.7123481
0.13949151 0.12020697 0.71256983
0.14082369 0.12024671 0.71280539
0.14215606 0.12028591 0.71303773
0.1434862 0.1203225 0.71325469
0.14482142 0.12036268 0.71349287
0.14615963 0.12040464 0.71374154
0.14749692 0.12044509 0.71398133
0.14883536 0.12048577 0.71422249
0.15017459 0.12052638 0.71446323
0.15151006 0.12056332 0.71468222
0.15285261 0.12060522 0.71493059
0.15419653 0.1206475 0.71518117
0.1555381 0.12068723 0.71541673
0.15688501 0.12073044 0.71567285
0.15822837 0.12077022 0.71590871
0.15957849 0.12081448 0.71617103
0.16093732 0.12086459 0.71646804
0.16228311 0.12090415 0.71670258
0.16362938 0.12094345 0.71693558
0.16498743 0.12099078 0.71721613
0.16634119 0.12103425 0.7174738
0.16769052 0.12107385 0.71770853
0.16904117 0.12111379 0.71794534
0.17039771 0.12115731 0.71820331
0.17175333 0.12119953 0.71845353
0.17312828 0.12125464 0.71878022
0.17447686 0.1212906 0.71899343
0.17584871 0.12134209 0.71929866
0.17721252 0.12138733 0.71956682
0.17857413 0.1214304 0.71982217
0.17994767 0.12148093 0.72012162
0.18130882 0.1215224 0.72036749
0.18268579 0.12157382 0.72067231
0.18405767 0.12162114 0.72095281
0.18541779 0.12166009 0.72118372
0.18681316 0.12172147 0.72154754
0.18819307 0.12177198 0.721847
0.18957756 0.12182476 0.7221598
0.19095543 0.12187257 0.72244328
0.19235623 0.12193428 0.72280908
0.1937515 0.12199169 0.72314936
0.082259968 0.12437706 0.72948754
0.082766965 0.12317289 0.72242486
0.083607756 0.12249509 0.71844947
0.084461518 0.1218567 0.71470523
0.085367583 0.12131183 0.71150953
0.086310521 0.12083473 0.70871127
0.087257527 0.12037717 0.70602763
0.088272147 0.12002472 0.70396048
0.089486726 0.11995029 0.70352393
0.090772711 0.11997233 0.70365316
0.092071384 0.12001029 0.70387584
0.09337011 0.12004729 0.7040928
0.094670862 0.12008586 0.70431906
0.095974028 0.12012643 0.704557
0.097272806 0.12016053 0.70475698
0.098572247 0.12019455 0.70495653
0.099878363 0.12023573 0.70519811
0.10118522 0.12027677 0.70543879
0.10249443 0.12031955 0.70568967
0.10380223 0.12035965 0.70592487
0.10511468 0.12040409 0.70618552
0.10643167 0.12045261 0.70647007
0.10774657 0.12049764 0.70673424
0.10906705 0.12054779 0.70702833
0.11038815 0.12059746 0.70731968
0.11170827 0.12064493 0.70759809
0.11303127 0.12069441 0.70788825
0.11435588 0.12074447 0.70818192
0.11567937 0.12079227 0.70846224
0.11699686 0.12083283 0.70870012
0.11831581 0.12087399 0.70894152
0.11963945 0.12091902 0.70920563
0.12095268 0.12095268 0.7094031
0.1222733 0.12099295 0.70963925
0.12359609 0.12103451 0.70988303
0.12491492 0.12107138 0.71009928
0.12623519 0.12110888 0.71031922
0.12755929 0.12114928 0.71055615
0.12888442 0.12118983 0.71079397
0.13020392 0.12122434 0.71099639
0.13152379 0.12125852 0.71119684
0.13284414 0.12129247 0.71139598
0.13416471 0.12132598 0.7115925
0.13548639 0.12135985 0.71179122
0.13681163 0.12139623 0.71200454
0.13813888 0.12143371 0.71222436
0.13946828 0.12147237 0.71245116
0.14079995 0.12151229 0.71268523
0.14213002 0.12155011 0.71290708
0.14346007 0.12158723 0.71312481
0.14479494 0.12162776 0.71336246
0.14613223 0.12166957 0.71360773
0.14746952 0.12171066 0.71384871
0.14880772 0.12175176 0.71408981
0.15014443 0.12179098 0.71431977
0.15148178 0.12183002 0.71454883
0.1528253 0.12187334 0.71480286
0.15416819 0.12191543 0.71504974
0.15551013 0.12195607 0.7152881
0.15686238 0.12200407 0.71556962
0.1582022 0.1220417 0.71579033
0.15954444 0.12208056 0.71601826
0.16090184 0.12213031 0.71631002
0.16224393 0.12216774 0.71652955
0.16359529 0.1222115 0.71678621
0.16494459 0.12225305 0.71702987
0.16629621 0.12229566 0.71727979
0.16765088 0.12233983 0.71753889
0.1690073 0.1223846 0.71780145
0.1703645 0.12242924 0.71806329
0.1717246 0.12247528 0.7183333
0.17308562 0.12252127 0.71860307
0.17444655 0.12256654 0.71886855
0.17580687 0.1226107 0.71912754
0.17717285 0.12265813 0.71940577
0.17853945 0.1227053 0.7196824
0.17991453 0.12275758 0.719989
0.18128125 0.12280343 0.72025794
0.18265232 0.12285157 0.72054029
0.18401887 0.12289599 0.72080082
0.18539339 0.12294509 0.72108883
0.1867734 0.12299713 0.721394
0.18815453 0.12304915 0.72169918
0.18953003 0.12309682 0.72197872
0.19093755 0.12316449 0.72237563
0.19235094 0.12323501 0.72278923
0.1937626 0.12330347 0.72319078
0.08222831 0.12564485 0.7292068
0.082736671 0.12443075 0.72216046
0.083584771 0.1237573 0.71825194
0.084438682 0.12311289 0.71451199
0.085351706 0.12257275 0.7113772
0.086293392 0.12208916 0.7085706
0.087234326 0.12161866 0.70583993
0.088263787 0.12128333 0.70389378
0.089483164 0.12121478 0.70349592
0.090767503 0.12123492 0.7036128
0.092064574 0.12127127 0.70382375
0.093357012 0.12130061 0.70399404
0.09465456 0.12133571 0.70419776
0.09594804 0.12136474 0.70436627
0.097249933 0.12140352 0.70459127
0.098557599 0.12144839 0.70485175
0.099868201 0.12149571 0.70512635
0.10117748 0.12154025 0.70538485
0.10248648 0.12158334 0.70563495
0.10379551 0.12162542 0.70587915
0.10511042 0.12167328 0.70615691
0.10642263 0.1217169 0.70641011
0.10773475 0.12175939 0.70665669
0.10905037 0.1218048 0.70692021
0.11036767 0.12185101 0.70718843
0.11168478 0.12189596 0.70744932
0.11300505 0.1219433 0.70772403
0.11433114 0.1219958 0.70802873
0.11565751 0.12204742 0.70832837
0.11697552 0.12208921 0.70857084
0.11829554 0.12213215 0.7088201
0.11961873 0.12217741 0.70908278
0.12093206 0.12221176 0.7092821
0.12224895 0.12224895 0.70949793
0.12357289 0.12229234 0.70974976
0.12489286 0.12233096 0.70997387
0.12621087 0.12236688 0.71018237
0.12753393 0.12240694 0.71041489
0.12885876 0.12244788 0.71065247
0.13018234 0.12248683 0.71087855
0.13150239 0.12252174 0.71108115
0.13282417 0.12255757 0.71128905
0.13414323 0.12259022 0.71147859
0.13546346 0.12262332 0.7116707
0.13679005 0.12266149 0.71189225
0.13811728 0.12269954 0.71211302
0.13944368 0.12273614 0.71232545
0.14077538 0.12277671 0.71256089
0.14210632 0.12281588 0.71278822
0.1434359 0.12285317 0.71300465
0.14476998 0.12289363 0.71323949
0.1461072 0.122936 0.71348542
0.14744385 0.12297717 0.71372437
0.14878044 0.12301759 0.71395892
0.15011589 0.12305637 0.71418399
0.15145858 0.12310038 0.71443939
0.15279743 0.12314054 0.71467251
0.15414064 0.12318353 0.71492195
0.15548646 0.12322786 0.71517926
0.15683664 0.12327489 0.71545219
0.15817763 0.12331399 0.71567911
0.15952109 0.12335437 0.71591347
0.16086671 0.12339575 0.71615362
0.1622199 0.12344223 0.71642339
0.16356988 0.12348557 0.71667492
0.16491623 0.12352549 0.71690661
0.16627204 0.12357183 0.71717554
0.16762714 0.12361692 0.71743727
0.1689789 0.12365889 0.71768081
0.17033677 0.12370465 0.71794641
0.17169638 0.12375098 0.71821529
0.1730558 0.12379647 0.71847934
0.1744215 0.12384575 0.71876532
0.17578179 0.12389049 0.71902496
0.17714372 0.12393571 0.71928746
0.17851415 0.12398619 0.71958041
0.17989007 0.12403972 0.71989107
0.18125619 0.12408578 0.7201584
0.18262766 0.12413482 0.72044301
0.18400526 0.12418729 0.72074753
0.18537495 0.12423373 0.72101706
0.18675834 0.12428865 0.72133577
0.18814713 0.12434638 0.72167081
0.1895294 0.12439902 0.72197634
0.19091372 0.12445229 0.72228551
0.19233508 0.12452881 0.72272962
0.19379197 0.12462716 0.7233004
0.082190655 0.12690237 0.7288729
0.082730681 0.12572458 0.72210819
0.083559833 0.12501587 0.71803766
0.084438838 0.12440225 0.7145133
0.085346892 0.12384925 0.71133709
0.086278684 0.12334656 0.70844984
0.087219492 0.12287126 0.70571989
0.08825399 0.12253971 0.70381564
0.089478619 0.12247783 0.70346022
0.090762034 0.12249701 0.70357037
0.092052162 0.1225246 0.70372885
0.093339652 0.12254798 0.70386314
0.094644293 0.12259295 0.70412141
0.095949724 0.12263773 0.7043786
0.097254917 0.12268104 0.70462739
0.098558798 0.1227216 0.70486033
0.099867381 0.1227669 0.70512056
0.10117465 0.12280948 0.70536512
0.10248124 0.12285018 0.70559883
0.10379199 0.12289481 0.70585519
0.10510631 0.12294253 0.70612925
0.10641886 0.12298706 0.70638502
0.10773084 0.12302989 0.706631
0.10904665 0.12307604 0.70689613
0.11036068 0.12311915 0.70714366
0.11167416 0.12316065 0.70738202
0.112989 0.1232027 0.70762354
0.11430662 0.1232468 0.70787686
0.11562955 0.1232956 0.70815712
0.11695325 0.12334415 0.70843595
0.11827486 0.12338945 0.70869619
0.11959397 0.12343121 0.70893604
0.12091173 0.12347071 0.70916289
0.12222819 0.12350807 0.70937747
0.12354673 0.12354673 0.70959949
0.12486871 0.123588 0.7098366
0.12618707 0.1236249 0.7100485
0.12750888 0.12366439 0.71027529
0.12883277 0.1237051 0.71050912
0.13015702 0.12374534 0.71074027
0.13147858 0.12378226 0.71095234
0.1328007 0.12381901 0.7111634
0.13412037 0.12385279 0.71135741
0.13544247 0.12388813 0.71156037
0.1367687 0.12392657 0.71178114
0.13809359 0.12396309 0.71199089
0.13941877 0.12399918 0.7121982
0.14075159 0.12404136 0.71244043
0.14208525 0.1240835 0.71268255
0.14341639 0.1241227 0.71290767
0.14474908 0.12416254 0.71313649
0.14608288 0.12420262 0.71336669
0.1474196 0.12424447 0.71360707
0.14875731 0.12428641 0.71384794
0.15009508 0.12432768 0.71408498
0.15143488 0.12436993 0.71432763
0.1527722 0.12440944 0.71455455
0.15411568 0.12445324 0.71480614
0.15545966 0.12449674 0.715056
0.15680833 0.12454324 0.71532309
0.15815324 0.12458602 0.71556878
0.15949304 0.12462412 0.71578759
0.16084032 0.12466739 0.71603614
0.16219264 0.12471387 0.71630305
0.16354112 0.12475667 0.71654892
0.16488613 0.12479617 0.71677577
0.16624442 0.12484503 0.71705639
0.16760141 0.12489216 0.71732712
0.16895241 0.12493415 0.71756828
0.17030954 0.12498001 0.71783167
0.17166883 0.12502673 0.71810001
0.17302668 0.12507172 0.7183584
0.17439561 0.12512399 0.71865863
0.17576112 0.12517305 0.71894038
0.17712075 0.12521723 0.71919417
0.17848891 0.12526676 0.71947867
0.17986172 0.12531881 0.71977764
0.18123066 0.12536745 0.72005695
0.1826065 0.12542012 0.7203595
0.18399113 0.12547806 0.72069222
0.18536155 0.12552553 0.72096497
0.18675597 0.12558851 0.72132665
0.18814082 0.12564422 0.72164661
0.18952662 0.12569977 0.72196573
0.19091322 0.12575513 0.7222836
0.19231945 0.12582256 0.72267091
0.19382307 0.12595236 0.72341645
0.08215671 0.12816447 0.72857189
0.082703069 0.12698503 0.72186714
0.083537914 0.12627824 0.71784931
0.084413134 0.12565313 0.7142958
0.085331887 0.12511067 0.71121204
0.086271241 0.12461402 0.70838875
0.08721479 0.12413784 0.70568186
0.088249609 0.12380341 0.70378071
0.089465097 0.12372832 0.70335388
0.090748802 0.12374837 0.70346785
0.092042617 0.12378145 0.7036559
0.093344942 0.12382492 0.70390302
0.094646618 0.12386638 0.7041387
0.09594918 0.12390788 0.70437461
0.097249188 0.12394504 0.70458585
0.098551705 0.1239844 0.70480961
0.099855304 0.1240241 0.70503527
0.10116322 0.1240681 0.70528537
0.10247129 0.12411119 0.70553035
0.10378184 0.12415619 0.70578617
0.10509255 0.12420028 0.70603681
0.10640958 0.1242507 0.70632344
0.10772447 0.12429747 0.70658928
0.10903863 0.12434229 0.70684409
0.11035075 0.12438379 0.70708001
0.1116647 0.12442638 0.70732212
0.11297972 0.12446918 0.70756543
0.11429787 0.12451444 0.70782268
0.11561187 0.12455422 0.70804882
0.11692712 0.12459447 0.70827764
0.11825126 0.12464323 0.7085548
0.11956909 0.12468435 0.70878857
0.12088826 0.12472598 0.7090252
0.12220841 0.12476775 0.70926267
0.12352652 0.12480658 0.70948344
0.12484588 0.12484588 0.70970684
0.12616704 0.12488616 0.70993578
0.12748922 0.12492662 0.7101658
0.12881236 0.12496721 0.71039653
0.13013498 0.12500651 0.71061999
0.13145725 0.1250447 0.71083707
0.13277875 0.12508142 0.7110458
0.13410352 0.12512051 0.71126801
0.13542382 0.12515472 0.71146244
0.13674541 0.12518947 0.71165997
0.1380697 0.12522602 0.71186775
0.13939489 0.12526269 0.71207625
0.14072959 0.12530717 0.71232909
0.14206168 0.12534854 0.71256429
0.14339149 0.12538718 0.71278393
0.14472379 0.12542729 0.71301192
0.14605781 0.12546816 0.71324432
0.14739537 0.12551135 0.71348977
0.14873455 0.12555514 0.71373874
0.15007028 0.1255953 0.71396703
0.15140831 0.12563668 0.71420228
0.15274975 0.12568016 0.71444947
0.15408666 0.12571925 0.71467161
0.15542954 0.12576249 0.71491748
0.15677743 0.12580904 0.71518207
0.15812258 0.12585267 0.71543008
0.15946481 0.12589327 0.71566087
0.16081385 0.12593855 0.7159183
0.16216438 0.12598428 0.71617824
0.1635139 0.12602849 0.71642959
0.16486433 0.12607272 0.716681
0.16622001 0.12612024 0.71695113
0.16757151 0.12616388 0.71719921
0.16892543 0.12620866 0.71745378
0.1702816 0.12625442 0.71771389
0.17164463 0.12630454 0.7179988
0.17300703 0.12635344 0.7182768
0.17437343 0.12640454 0.71856725
0.17574038 0.12645525 0.71885556
0.17710058 0.12650041 0.71911228
0.17846385 0.1265471 0.71937764
0.17983326 0.12659742 0.71966374
0.18120685 0.12664995 0.71996236
0.18258308 0.12670356 0.72026712
0.18397719 0.12676872 0.72063756
0.18535261 0.12682021 0.72093022
0.18674549 0.12688282 0.72128618
0.18814845 0.12695138 0.72167587
0.18952748 0.12700295 0.72196907
0.19092359 0.12706518 0.72232282
0.19232649 0.12713106 0.72269732
0.19382852 0.12726115 0.72343683
0.081806868 0.12892763 0.72546947
0.082679532 0.12825093 0.72166169
0.083515957 0.12753987 0.71766061
0.084375411 0.12688516 0.71397662
0.085282043 0.12632002 0.71079659
0.086245775 0.12585495 0.70817965
0.087204888 0.12539682 0.70560175
0.088242672 0.12506336 0.7037254
0.089463383 0.12499494 0.70334041
0.090751015 0.12502062 0.70348495
0.09204226 0.12505051 0.70365316
0.093339138 0.12508714 0.70385927
0.09463837 0.1251259 0.7040773
0.095937893 0.125164 0.70429176
0.097237855 0.12520169 0.70450377
0.098540418 0.1252417 0.7047289
0.099844426 0.1252825 0.7049585
0.10114796 0.12532169 0.70517898
0.10245686 0.12536646 0.70543098
0.10376678 0.12541138 0.70568371
0.10507627 0.12545469 0.70592743
0.10638759 0.12549914 0.70617753
0.10770155 0.12554559 0.7064389
0.10901707 0.12559275 0.70670432
0.11033562 0.12564228 0.70698303
0.11165392 0.12569042 0.70725381
0.11297047 0.12573549 0.70750749
0.11428519 0.12577756 0.70774418
0.11559817 0.12581679 0.70796496
0.11691079 0.12585478 0.7081787
0.11822465 0.12589328 0.7083953
0.11954447 0.12593722 0.7086426
0.12086397 0.12597992 0.70888281
0.12218721 0.12602556 0.70913965
0.12350722 0.12606695 0.70937258
0.1248272 0.12610748 0.70960063
0.12614726 0.12614726 0.70982444
0.12746774 0.12618665 0.71004617
0.12878954 0.12622656 0.7102707
0.13011172 0.12626605 0.71049291
0.13143274 0.12630366 0.71070451
0.1327561 0.12634276 0.71092457
0.13408203 0.12638354 0.71115404
0.13540184 0.12641783 0.71134698
0.13672221 0.126452 0.71153921
0.13804664 0.12648925 0.71174884
0.13937712 0.1265313 0.71198547
0.14070959 0.12657438 0.71222788
0.14203718 0.12661232 0.71244138
0.14336661 0.12665121 0.71266019
0.14469923 0.12669222 0.71289092
0.14603493 0.12673515 0.7131325
0.14737383 0.12678011 0.71338546
0.14871198 0.12682363 0.71363044
0.15004675 0.12686357 0.71385509
0.15138516 0.12690586 0.71409303
0.15273035 0.12695308 0.71435875
0.15406555 0.12699127 0.71457368
0.15540384 0.12703136 0.71479923
0.15674804 0.12707558 0.71504807
0.15809289 0.12711959 0.71529567
0.159438 0.1271631 0.71554053
0.16078687 0.12720889 0.7157982
0.1621377 0.12725548 0.7160604
0.16348182 0.12729612 0.71628904
0.16483523 0.1273433 0.71655452
0.16619037 0.12739106 0.71682328
0.16754492 0.12743764 0.71708536
0.16890299 0.12748617 0.71735847
0.17025761 0.12753136 0.7176128
0.17162052 0.12758204 0.71789795
0.17298362 0.12763211 0.71817964
0.17434718 0.12768176 0.71845907
0.17571551 0.12773415 0.71875381
0.17707947 0.12778261 0.71902657
0.17844489 0.12783143 0.71930122
0.17981634 0.12788382 0.71959603
0.18118906 0.12793636 0.71989167
0.18256432 0.12798993 0.72019309
0.18394561 0.12804694 0.72051388
0.18533058 0.1281057 0.72084451
0.18671618 0.12816407 0.72117299
0.18811209 0.12822866 0.7215364
0.18951271 0.12829556 0.7219128
0.19091204 0.12836066 0.72227913
0.1923214 0.12843159 0.72267824
0.1938864 0.12860478 0.72365284
0.081803299 0.13023086 0.72543782
0.082665727 0.12953134 0.72154123
0.083493225 0.12879962 0.71746528
0.084373303 0.12817013 0.71395874
0.08530093 0.12763071 0.71095401
0.086228997 0.12710792 0.70804185
0.087186776 0.12664357 0.70545518
0.088239104 0.12632793 0.70369697
0.089462221 0.12626228 0.70333129
0.090745807 0.12628263 0.7034446
0.092035204 0.12631038 0.70359921
0.093328834 0.12634312 0.70378155
0.094628423 0.12638293 0.70400333
0.095927648 0.1264212 0.70421654
0.097228065 0.12646003 0.70443285
0.09852986 0.12649962 0.70465338
0.099832475 0.12653925 0.7048741
0.10113598 0.12657899 0.70509547
0.10244307 0.12662217 0.70533603
0.10375299 0.12666775 0.70558995
0.1050633 0.12671271 0.70584035
0.1063733 0.12675621 0.70608264
0.10768567 0.12680148 0.70633477
0.10900255 0.12685093 0.70661026
0.11031687 0.12689628 0.70686287
0.11163348 0.12694322 0.70712435
0.11295204 0.12699127 0.70739204
0.11426633 0.12703352 0.70762736
0.11558006 0.12707421 0.70785403
0.11689517 0.12711552 0.70808411
0.11821017 0.12715581 0.70830858
0.11952523 0.1271953 0.70852858
0.12084301 0.12723681 0.70875984
0.1221651 0.12728196 0.70901132
0.12348387 0.12732275 0.70923853
0.12480126 0.12736128 0.70945317
0.12612034 0.12740074 0.70967299
0.12744197 0.12744197 0.70990264
0.12876448 0.12748323 0.71013248
0.13008629 0.12752301 0.71035403
0.13140796 0.12756187 0.71057051
0.13273242 0.12760267 0.71079779
0.1340566 0.12764241 0.7110191
0.13537706 0.12767789 0.71121681
0.13669674 0.12771198 0.71140665
0.13802244 0.12775099 0.71162403
0.1393519 0.12779276 0.71185666
0.14068088 0.12783332 0.71208256
0.14200921 0.12787254 0.71230108
0.1433426 0.12791559 0.71254086
0.14467612 0.12795798 0.71277702
0.14601332 0.12800287 0.713027
0.14734986 0.12804639 0.71326947
0.14868629 0.12808906 0.71350712
0.15002266 0.12813094 0.71374047
0.15135892 0.12817203 0.71396929
0.15269783 0.12821464 0.7142067
0.15403783 0.12825744 0.71444511
0.15538248 0.12830338 0.714701
0.15672724 0.12834863 0.71495312
0.15807326 0.1283942 0.71520692
0.15941799 0.12843798 0.71545076
0.16076531 0.12848312 0.71570218
0.16211453 0.12852904 0.71595806
0.16346227 0.12857309 0.71620339
0.16481283 0.12861864 0.71645713
0.16616446 0.12866431 0.71671152
0.16752246 0.12871417 0.71698928
0.16888092 0.12876362 0.71726471
0.17023982 0.12881264 0.71753776
0.1716008 0.12886249 0.71781546
0.17296197 0.12891173 0.71808976
0.17432213 0.12895949 0.71835583
0.17569026 0.12901241 0.71865058
0.17705661 0.12906325 0.71893376
0.17842557 0.12911522 0.71922332
0.1797988 0.12916952 0.71952581
0.18117112 0.12922241 0.71982038
0.18254556 0.12927604 0.72011906
0.18392563 0.12933286 0.72043562
0.18530691 0.12938973 0.72075242
0.18669601 0.12945123 0.72109503
0.18808953 0.12951493 0.72144985
0.18949208 0.12958393 0.72183418
0.19089933 0.12965517 0.72223103
0.19231497 0.12973112 0.72265404
0.19392228 0.12993446 0.72378677
0.081780896 0.13150367 0.7252391
0.082644016 0.13079879 0.72135168
0.08347141 0.13006011 0.71727782
0.08435867 0.12943582 0.71383494
0.08528126 0.1288837 0.71079004
0.08622089 0.12837332 0.70797533
0.087166779 0.12788703 0.70529336
0.088231705 0.12758686 0.70363796
0.089455537 0.12752172 0.70327872
0.090736359 0.12753852 0.70337135
0.092026122 0.12756725 0.70352978
0.093319014 0.12759948 0.70370752
0.094616033 0.12763639 0.70391113
0.095914327 0.12767403 0.70411873
0.097211808 0.12770964 0.70431507
0.098511994 0.1277478 0.70452559
0.099815167 0.12778884 0.70475191
0.10112234 0.1278339 0.7050004
0.1024293 0.12787758 0.70524126
0.10373711 0.12792122 0.70548195
0.10504736 0.12796679 0.70573324
0.10636013 0.12801428 0.7059952
0.10767521 0.12806341 0.70626616
0.10899097 0.1281122 0.70653516
0.11029944 0.12815137 0.70675123
0.1116129 0.12819539 0.706994
0.11293036 0.12824294 0.70725626
0.11424479 0.12828605 0.70749396
0.11555997 0.12832902 0.70773095
0.11687563 0.1283716 0.70796573
0.11819196 0.12841396 0.70819944
0.11950885 0.12845603 0.70843142
0.12082539 0.12849686 0.70865655
0.12214296 0.12853788 0.70888281
0.12345985 0.12857735 0.70910048
0.12477718 0.12861648 0.70931631
0.12609582 0.12865613 0.709535
0.12741403 0.12869456 0.70974696
0.12873782 0.12873782 0.70998549
0.13006176 0.12878036 0.7102201
0.13138358 0.12882 0.71043873
0.13270673 0.12886016 0.71066016
0.13402967 0.12889935 0.71087629
0.13535255 0.12893775 0.71108806
0.13666874 0.12896909 0.71126091
0.13799764 0.12901175 0.71149617
0.13932706 0.1290541 0.71172976
0.14065534 0.12909463 0.71195328
0.14198712 0.12913761 0.71219027
0.14331985 0.12918065 0.71242774
0.14465497 0.12922512 0.71267289
0.14599173 0.12927021 0.71292156
0.14732452 0.12931104 0.71314675
0.14865865 0.12935233 0.7133745
0.15000008 0.12939921 0.71363306
0.15133744 0.12944181 0.71386796
0.15267748 0.12948596 0.71411145
0.15402238 0.12953347 0.71437347
0.15536493 0.12957823 0.71462029
0.15671086 0.12962504 0.71487844
0.15805449 0.12966919 0.71512198
0.15940359 0.1297171 0.71538615
0.1607551 0.12976617 0.71565676
0.16210297 0.12981154 0.71590704
0.16345069 0.12985608 0.71615267
0.1648006 0.12990165 0.71640396
0.16615145 0.12994725 0.71665543
0.16750611 0.12999509 0.7169193
0.16886152 0.13004278 0.71718228
0.17022106 0.1300929 0.71745872
0.17158228 0.13014354 0.71773797
0.17294523 0.13019472 0.71802026
0.17430659 0.13024396 0.71829176
0.17567214 0.13029557 0.71857643
0.17703867 0.13034716 0.71886092
0.17840625 0.13039875 0.71914548
0.17977716 0.13045201 0.71943921
0.18115163 0.1305071 0.71974295
0.18253087 0.13056478 0.72006112
0.18391381 0.13062429 0.72038937
0.18529417 0.13068114 0.72070289
0.18668458 0.13074425 0.72105092
0.18807878 0.13080911 0.72140861
0.18948624 0.13088225 0.72181195
0.19089156 0.13095291 0.72220165
0.19230908 0.13103093 0.72263193
0.19392094 0.13123943 0.72378176
0.081770897 0.13279594 0.72515047
0.082620054 0.13206199 0.72114259
0.083452784 0.13132492 0.71711779
0.084330022 0.13067935 0.71359253
0.0852402 0.13010347 0.71044785
0.086210594 0.12963519 0.70789075
0.087149821 0.1291344 0.70515615
0.088226929 0.1288494 0.70359987
0.089451723 0.1287851 0.70324874
0.090729192 0.12879738 0.70331579
0.092021294 0.12882981 0.70349288
0.093316011 0.12886497 0.70368487
0.094612651 0.12890179 0.70388597
0.095905572 0.12893265 0.70405447
0.097203277 0.12896906 0.70425326
0.098503985 0.12900844 0.70446831
0.099805072 0.12904732 0.70468062
0.10111021 0.1290904 0.70491582
0.10241743 0.12913503 0.70515954
0.1037237 0.12917736 0.70539075
0.10503221 0.12922144 0.70563143
0.10634674 0.12927179 0.70590633
0.10765771 0.12931666 0.70615137
0.10897136 0.12936366 0.70640802
0.11028121 0.12940513 0.70663446
0.11159515 0.12945037 0.70688152
0.11290959 0.12949517 0.7071262
0.1142248 0.12953985 0.70737016
0.11553977 0.12958327 0.70760727
0.11685562 0.12962672 0.70784456
0.11817242 0.12967028 0.70808238
0.11948956 0.12971327 0.7083171
0.12080783 0.12975657 0.70855355
0.12212457 0.12979731 0.70877606
0.12343766 0.12983339 0.70897305
0.12475627 0.12987447 0.7091974
0.12607592 0.1299158 0.70942307
0.12739374 0.12995441 0.70963395
0.12871468 0.12999542 0.70985788
0.13003753 0.13003753 0.71008778
0.13136137 0.13007979 0.71031857
0.13268612 0.13012214 0.71054983
0.13400838 0.13016126 0.71076339
0.13533066 0.13019964 0.71097302
0.13665378 0.1302381 0.71118307
0.13797903 0.13027787 0.71140021
0.13930625 0.13031875 0.71162343
0.1406353 0.13036056 0.71185178
0.14196761 0.13040464 0.7120924
0.14330153 0.13044937 0.71233672
0.14463669 0.13049443 0.71258277
0.14597154 0.13053842 0.71282297
0.14730518 0.13058056 0.71305311
0.14864095 0.13062386 0.71328956
0.14998035 0.13066958 0.71353918
0.15131925 0.13071407 0.71378213
0.15266249 0.13076153 0.71404135
0.15400654 0.1308089 0.71429998
0.1553504 0.13085531 0.71455342
0.15669756 0.13090372 0.71481776
0.1580449 0.13095149 0.71507859
0.15939431 0.13100018 0.71534449
0.16074514 0.13104926 0.71561247
0.1620927 0.13109489 0.71586168
0.16344166 0.13114093 0.71611309
0.16479072 0.13118634 0.71636105
0.16614014 0.13123131 0.71660662
0.1674913 0.13127697 0.71685588
0.16884443 0.13132346 0.71710974
0.17020226 0.13137284 0.71737945
0.17156401 0.1314245 0.71766156
0.17292698 0.13147631 0.7179445
0.17429161 0.13152862 0.71823007
0.17565715 0.13158083 0.71851516
0.17702372 0.13163301 0.71880019
0.17839089 0.13168491 0.71908355
0.17976233 0.13173918 0.7193799
0.18113723 0.13179518 0.71968573
0.18251668 0.13185368 0.72000515
0.18390107 0.1319149 0.72033942
0.18528266 0.13197327 0.72065812
0.18667437 0.13203797 0.72101146
0.18806767 0.13210291 0.72136605
0.18947574 0.13217723 0.72177196
0.19088365 0.13225044 0.72217172
0.19229944 0.13232809 0.72259569
0.081746429 0.13406414 0.72493345
0.082599461 0.13332984 0.72096282
0.083427019 0.13257782 0.71689636
0.084319152 0.13194983 0.71350056
0.085234255 0.1313761 0.71039826
0.086198866 0.13089459 0.70779449
0.087134972 0.13038445 0.70503604
0.088223144 0.13011327 0.70356965
0.089444898 0.130044 0.7031951
0.090727538 0.13006395 0.70330298
0.092018083 0.13009453 0.70346832
0.093311094 0.13012771 0.70364779
0.094603486 0.13015915 0.70381778
0.09589617 0.13019016 0.70398545
0.097195365 0.13022909 0.70419592
0.098496251 0.13026923 0.704413
0.099797234 0.13030849 0.70462531
0.10109987 0.13034889 0.70484376
0.10240626 0.13039307 0.70508265
0.10371357 0.13043731 0.70532191
0.10502281 0.13048288 0.70556831
0.10633279 0.13052827 0.70581371
0.10764081 0.1305702 0.7060405
0.10895069 0.1306134 0.70627403
0.11026417 0.13065986 0.70652527
0.11157839 0.13070612 0.70677537
0.11289211 0.13075075 0.70701671
0.11420676 0.13079545 0.70725846
0.11551959 0.13083711 0.70748371
0.11683483 0.13088055 0.70771861
0.1181533 0.13092662 0.70796776
0.11946999 0.13096978 0.70820111
0.12078812 0.13101357 0.70843792
0.12210644 0.13105665 0.70867085
0.12341936 0.1310931 0.70886797
0.1247382 0.13113503 0.7090947
0.12605675 0.1311758 0.70931512
0.12737474 0.13121518 0.70952809
0.12869518 0.13125627 0.70975029
0.13001858 0.13129956 0.7099843
0.13134271 0.13134271 0.71021771
0.13266692 0.1313851 0.71044695
0.13399123 0.1314268 0.71067238
0.13531433 0.13146654 0.71088725
0.13663864 0.13150668 0.71110433
0.13796368 0.13154677 0.71132112
0.13929081 0.1315881 0.71154457
0.14061891 0.13162956 0.71176881
0.14194973 0.13167283 0.71200275
0.14328359 0.1317181 0.71224755
0.14461848 0.1317635 0.71249306
0.14595272 0.13180752 0.71273106
0.14728749 0.13185124 0.71296751
0.1486246 0.13189629 0.71321106
0.14996295 0.13194165 0.71345639
0.15130451 0.13198905 0.71371263
0.15264757 0.13203692 0.71397156
0.15399149 0.13208476 0.71423018
0.15533619 0.13213244 0.71448803
0.15668024 0.13217881 0.71473879
0.15802167 0.13222222 0.71497351
0.15937026 0.13227086 0.71523654
0.16072163 0.13232102 0.71550775
0.16207343 0.13237073 0.71577656
0.16342506 0.13241951 0.71604037
0.16477843 0.13246894 0.71630758
0.16612943 0.13251568 0.71656042
0.16748141 0.1325625 0.71681356
0.16883357 0.13260874 0.71706361
0.17018689 0.13265519 0.71731472
0.17154779 0.13270678 0.71759367
0.17291036 0.13275889 0.71787548
0.17427415 0.13281114 0.71815807
0.17564107 0.13286501 0.71844935
0.17700875 0.13291866 0.71873939
0.17837897 0.13297342 0.71903551
0.17975135 0.13302898 0.71933597
0.18112487 0.13308458 0.71963662
0.18250245 0.13314235 0.71994901
0.18388636 0.13320391 0.72028184
0.18527184 0.1332657 0.72061604
0.18666346 0.13333105 0.72096932
0.18805645 0.13339645 0.72132301
0.1894626 0.13347022 0.72172189
0.19087794 0.13354942 0.72215015
0.19229871 0.1336313 0.72259295
0.081735007 0.13535318 0.72483218
0.082580335 0.13459945 0.72079587
0.083420821 0.13386132 0.71684313
0.08431147 0.13322499 0.71343553
0.085229136 0.13264987 0.71035564
0.086184941 0.13215025 0.70768011
0.0871296 0.13164838 0.70499253
0.088216729 0.13137312 0.70351851
0.089439891 0.13130538 0.70315576
0.090724654 0.13132869 0.70328063
0.0920121 0.13135521 0.70342261
0.093302093 0.13138458 0.7035799
0.094595127 0.13141739 0.70375562
0.095890023 0.13145189 0.70394033
0.097188666 0.13149056 0.7041474
0.098488539 0.13152985 0.70435786
0.099789977 0.13157022 0.70457405
0.10109191 0.13161021 0.70478821
0.10239763 0.1316541 0.70502317
0.10370386 0.13169754 0.70525581
0.10501319 0.13174382 0.7055037
0.10632339 0.13179007 0.70575136
0.10763174 0.13183296 0.70598102
0.10893923 0.1318738 0.70619977
0.1102513 0.13191919 0.70644277
0.11156526 0.13196577 0.70669222
0.11287627 0.13200784 0.70691752
0.11419085 0.13205311 0.70715994
0.11550377 0.13209549 0.70738685
