# .PCD v0.7 - Point Cloud Data file format
VERSION 0.7
FIELDS x y z
SIZE 4 4 4
TYPE F F F
COUNT 1 1 1
WIDTH 1450
HEIGHT 1
VIEWPOINT 0 0 0 1 0 0 0
POINTS 1450
DATA ascii
0.14290646 0.12961283 0.73680538
0.14446513 0.1298189 0.73797679
0.14603668 0.13003266 0.73919195
0.14761418 0.13024782 0.74041498
0.14920257 0.13046862 0.74167019
0.15079387 0.13068803 0.74291742
0.15239514 0.13091213 0.74419141
0.15400331 0.13113819 0.74547648
0.15561388 0.13136238 0.74675089
0.15722238 0.13158096 0.74799347
0.15883857 0.13180222 0.74925125
0.16046138 0.13202518 0.75051874
0.16208838 0.13224784 0.75178444
0.16373123 0.13247964 0.75310212
0.16538286 0.13271464 0.7544381
0.16704619 0.13295513 0.75580519
0.16872071 0.13320056 0.75720036
0.17040078 0.1334464 0.75859785
0.17209709 0.13370092 0.76004475
0.1738075 0.1339623 0.76153064
0.17553616 0.13423353 0.76307243
0.17728572 0.1345164 0.76468045
0.17907324 0.13482349 0.76642615
0.076583281 0.12894791 0.72558361
0.077671729 0.12858261 0.72352809
0.078773819 0.1282516 0.72166544
0.079890013 0.12795393 0.71999049
0.080919407 0.127529 0.71759939
0.082054049 0.1272807 0.71620226
0.08318419 0.12703322 0.71480972
0.084312052 0.12678988 0.71344048
0.085434623 0.12654601 0.71206826
0.086561628 0.12631586 0.71077317
0.087681942 0.12608279 0.70946169
0.088803023 0.12585752 0.70819414
0.089937933 0.12565796 0.70707124
0.091075636 0.12546784 0.7060014
0.092212453 0.12528175 0.70495427
0.093350165 0.12510192 0.70394242
0.094474979 0.12490987 0.70286173
0.095625028 0.12475583 0.70199496
0.096907817 0.12477673 0.70211256
0.098292142 0.12492613 0.70295328
0.099698246 0.12509908 0.70392638
0.10112069 0.12528791 0.7049889
0.10254925 0.1254795 0.70606709
0.10397915 0.12566805 0.70712799
0.10541911 0.12586403 0.70823073
0.10685533 0.12605089 0.70928222
0.10830936 0.1262541 0.71042567
0.10976799 0.12645786 0.71157217
0.11122785 0.12665831 0.71270007
0.11270111 0.12686925 0.7138871
0.11417203 0.12707283 0.71503258
0.11565038 0.12728003 0.7161985
0.11712957 0.12748356 0.71734381
0.11860856 0.12768245 0.71846288
0.12009331 0.12788315 0.71959221
0.12158228 0.12808402 0.7207225
0.12307268 0.1282821 0.7218371
0.12456642 0.12847951 0.7229479
0.12606488 0.12867762 0.72406268
0.12756449 0.12887284 0.72516119
0.12907384 0.12907384 0.72629219
0.13058981 0.12927735 0.72743732
0.13211066 0.12948158 0.72858655
0.13362993 0.12968028 0.72970462
0.1351527 0.12987845 0.73081964
0.13668318 0.13008012 0.73195451
0.13822094 0.1302848 0.73310626
0.13976885 0.1304951 0.73428953
0.14132479 0.13070884 0.73549229
0.1428833 0.13092098 0.73668593
0.14444572 0.13113275 0.73787761
0.14601646 0.13134815 0.73908961
0.14759739 0.13156871 0.74033076
0.14918494 0.13179119 0.74158257
0.15077186 0.13200915 0.742809
0.15235795 0.13222255 0.74400979
0.15395421 0.13244095 0.74523878
0.15556273 0.13266605 0.74650538
0.15718202 0.13289639 0.74780148
0.15881802 0.13313681 0.74915433
0.16044897 0.13336897 0.75046068
0.16207799 0.13359566 0.75173628
0.163716 0.13382594 0.75303209
0.16536808 0.13406383 0.75437063
0.16703337 0.13430847 0.7557472
0.16870792 0.13455652 0.75714296
0.17038898 0.13480574 0.75854534
0.17208946 0.13506623 0.76001108
0.17380105 0.13533124 0.76150233
0.17553076 0.13560612 0.76304901
0.17728528 0.13589573 0.7646786
0.17907095 0.13620454 0.76641631
0.076576672 0.13024579 0.72552103
0.077663526 0.1298743 0.72345167
0.078763127 0.12953605 0.72156745
0.079880744 0.12923795 0.71990693
0.080911033 0.12881036 0.71752512
0.082048811 0.12856467 0.71615648
0.083177127 0.12831201 0.71474904
0.084302358 0.12806237 0.71335846
0.08542528 0.12781677 0.71199042
0.086551972 0.12758403 0.7106939
0.087675959 0.12735413 0.70941329
0.088808216 0.1271427 0.70823556
0.089936666 0.12693189 0.70706129
0.091071509 0.12673588 0.70596939
0.092199489 0.12653585 0.70485514
0.093339965 0.12635818 0.70386547
0.094463125 0.12616216 0.70277357
0.09561871 0.12601405 0.70194858
0.096913129 0.12605041 0.70215106
0.098286361 0.12618701 0.70291197
0.099688567 0.12635684 0.70385802
0.1011077 0.12654361 0.70489836
0.10253115 0.12673105 0.70594251
0.10395908 0.12691937 0.70699155
0.10539426 0.12711187 0.70806378
0.10683983 0.12731212 0.70917934
0.10829165 0.12751502 0.71030951
0.10974653 0.12771672 0.71143311
0.11121145 0.12792531 0.71259499
0.11268878 0.12814324 0.71380895
0.11414973 0.12833783 0.71489292
0.11562356 0.12854239 0.71603245
0.11710221 0.12874773 0.71717626
0.11858327 0.12895121 0.71830964
0.12006862 0.12915489 0.71944427
0.12155792 0.12935843 0.72057807
0.1230517 0.12956236 0.72171408
0.12453973 0.12975605 0.72279298
0.12603949 0.12995782 0.72391689
0.12754244 0.13015869 0.72503585
0.12904912 0.13035928 0.72615314
0.13056655 0.13056655 0.7273078
0.13208675 0.13077246 0.72845477
0.13360952 0.13097681 0.7295931
0.13513499 0.13117982 0.73072398
0.13666582 0.13138406 0.73186159
0.13820371 0.1315911 0.73301488
0.13974774 0.1318 0.73417854
0.14130436 0.13201675 0.73538595
0.14286423 0.13223247 0.73658758
0.14442654 0.13244645 0.73777962
0.14599913 0.13266587 0.73900187
0.14758021 0.13288897 0.74024457
0.14915657 0.13310385 0.74144149
0.15074143 0.13332242 0.74265903
0.15234141 0.13355041 0.74392903
0.15394621 0.13377857 0.74520004
0.1555488 0.13400091 0.7464385
0.15716261 0.134229 0.7477091
0.15878944 0.13446425 0.7490195
0.16042319 0.13470133 0.7503401
0.16206823 0.13494384 0.75169104
0.16370617 0.13517646 0.75298685
0.16536008 0.13541834 0.75433415
0.16702056 0.1356616 0.7556892
0.16869561 0.13591266 0.75708771
0.17038348 0.13616993 0.75852084
0.17207702 0.1364276 0.75995612
0.17379263 0.13669854 0.76146543
0.17552516 0.13697845 0.76302463
0.17728795 0.13727744 0.7646901
0.17906722 0.13758448 0.7664004
0.0765706 0.13154437 0.72546351
0.07765539 0.13116582 0.72337586
0.078756757 0.13082734 0.7215091
0.079868309 0.1305165 0.71979487
0.080902457 0.13009115 0.71744907
0.082040079 0.12984297 0.71608031
0.083172649 0.12959459 0.71471053
0.084294245 0.12933697 0.7132898
0.085416712 0.12908842 0.71191901
0.086546712 0.12885843 0.71065068
0.087674893 0.12863252 0.70940471
0.088804431 0.12841503 0.70820534
0.089936271 0.12820701 0.70705813
0.091068298 0.12800509 0.70594448
0.092197135 0.12780429 0.70483714
0.093335472 0.12762198 0.70383161
0.094453625 0.12741731 0.70270288
0.095615461 0.12727621 0.70192474
0.096905813 0.12730764 0.70209807
0.098274797 0.12744021 0.70282924
0.099679783 0.12761553 0.70379603
0.10109705 0.12780194 0.70482409
0.10252152 0.12799272 0.70587623
0.10394628 0.12817915 0.70690441
0.10538017 0.12837221 0.70796913
0.10682485 0.12857363 0.70907992
0.10827495 0.12877671 0.71020001
0.10972807 0.12897861 0.71131343
0.11119408 0.1291908 0.7124837
0.11266106 0.12939928 0.71363342
0.11412682 0.12960164 0.71474946
0.11560166 0.12980969 0.71589679
0.11707895 0.13001585 0.71703374
0.11855751 0.13021889 0.7181536
0.12004308 0.13042518 0.71929127
0.1215334 0.13063216 0.7204327
0.1230277 0.13083899 0.72157335
0.12451958 0.13103893 0.72267604
0.12601775 0.13124129 0.72379202
0.12751858 0.13144222 0.72490019
0.12902662 0.13164645 0.72602648
0.13054319 0.13185517 0.72717762
0.132065 0.132065 0.72833478
0.13359135 0.13227519 0.72949398
0.13511789 0.13248144 0.73063141
0.13665205 0.13269113 0.73178786
0.13818929 0.13289975 0.73293841
0.13973078 0.13310847 0.73408949
0.14128533 0.13332559 0.73528695
0.14284557 0.133544 0.73649144
0.14440764 0.13376006 0.73768306
0.14598291 0.13398431 0.73891973
0.14756265 0.13420856 0.74015647
0.14914139 0.13442789 0.74136603
0.15074259 0.13466339 0.74266481
0.1523376 0.13488923 0.74391037
0.15393247 0.13511102 0.74513352
0.15554261 0.13534229 0.74640888
0.15715253 0.13556935 0.74766117
0.15876728 0.1357967 0.74891502
0.16041239 0.13604595 0.75028962
0.16205709 0.1362907 0.75163937
0.16369662 0.13652705 0.75294286
0.16534606 0.13676773 0.7542702
0.16700965 0.13701607 0.75563985
0.16868736 0.1372719 0.75705069
0.17037691 0.13753317 0.75849158
0.17207102 0.13779393 0.75992966
0.17378846 0.13806909 0.76144719
0.17551661 0.13834839 0.76298749
0.17729039 0.13865903 0.76470065
0.17907776 0.1389754 0.76644546
0.076564841 0.13284327 0.72540891
0.077648155 0.13245863 0.7233085
0.078749761 0.13211736 0.72144502
0.079859823 0.13180117 0.7197184
0.080892265 0.13136904 0.71735865
0.082031287 0.13112088 0.71600354
0.083164468 0.13087122 0.71464026
0.084288776 0.13061543 0.71324348
0.085408889 0.13036093 0.7118538
0.086538143 0.13012773 0.71058035
0.087662712 0.12989438 0.70930612
0.088790081 0.12967184 0.7080909
0.089915894 0.12945338 0.70689797
0.091053605 0.12925792 0.70583057
0.092193544 0.12907097 0.70480973
0.093327589 0.12888096 0.70377219
0.094445065 0.12867348 0.70263922
0.095611043 0.1285367 0.70189232
0.096897714 0.12856363 0.70203936
0.09826795 0.12869932 0.70278031
0.099676989 0.12888171 0.7037763
0.10109458 0.12907045 0.70480686
0.10250838 0.12924971 0.70578575
0.10393666 0.12944259 0.70683903
0.10537133 0.12963867 0.70790976
0.1068112 0.12983637 0.70898932
0.10826254 0.13004316 0.71011859
0.10971745 0.13024937 0.71124458
0.11117791 0.13045731 0.71238005
0.11263803 0.13066012 0.71348751
0.11410622 0.13086759 0.71462041
0.11558019 0.13107698 0.71576381
0.11705842 0.13128652 0.71690804
0.11853594 0.13149068 0.71802294
0.12002061 0.13169828 0.71915656
0.12150981 0.13190638 0.72029287
0.12300113 0.13211232 0.72141749
0.12449594 0.13231768 0.72253883
0.1259952 0.13252346 0.72366256
0.12749901 0.13272975 0.72478902
0.12900861 0.1329378 0.72592515
0.13052297 0.13314655 0.72706503
0.13204515 0.13335903 0.72822529
0.13357037 0.13357037 0.72937936
0.13510396 0.13378586 0.73055607
0.13663833 0.13399796 0.73171431
0.13817312 0.13420643 0.73285264
0.13971592 0.13441865 0.73401147
0.14126934 0.13463697 0.73520368
0.14283013 0.13485822 0.73641181
0.1443948 0.13507901 0.73761749
0.14596707 0.13530281 0.73883957
0.14754477 0.13552754 0.74006677
0.14913873 0.13576306 0.74135286
0.15072465 0.13598712 0.74257636
0.15230976 0.13620654 0.74377447
0.15391625 0.13644105 0.74505508
0.15552962 0.13667755 0.74634653
0.15713988 0.13690728 0.74760103
0.15875807 0.13713996 0.74887156
0.1603974 0.1373868 0.75021946
0.16204424 0.1376359 0.75157976
0.16369373 0.1378831 0.75292957
0.16533428 0.13811876 0.75421649
0.16700035 0.13837172 0.75559777
0.16867484 0.1386275 0.75699449
0.17036518 0.1388921 0.75843936
0.17206787 0.13916245 0.75991571
0.17378266 0.13943827 0.7614218
0.17552015 0.1397278 0.76300287
0.17729227 0.1400402 0.76470876
0.17909765 0.14037384 0.76653063
0.076561399 0.13414603 0.72537631
0.077654526 0.13377461 0.72336781
0.078740425 0.1334032 0.72135949
0.079858996 0.13309833 0.71971095
0.080890328 0.13266014 0.71734148
0.082019642 0.13239391 0.71590191
0.083153553 0.13214324 0.71454644
0.084278755 0.1318866 0.71315873
0.085399881 0.13163139 0.7117787
0.086526573 0.13139221 0.71048534
0.087652445 0.13115877 0.70922303
0.088778175 0.13093184 0.70799595
0.089906931 0.13071576 0.70682752
0.091050066 0.13052632 0.70580316
0.092187859 0.13033456 0.70476627
0.093319468 0.1301394 0.70371091
0.094439149 0.12993306 0.70259517
0.095610246 0.12980199 0.70188648
0.096891746 0.12982227 0.70199615
0.098267987 0.12996733 0.70278054
0.099673383 0.13014677 0.70375085
0.10108523 0.13033001 0.70474166
0.1025 0.13051242 0.70572799
0.10392861 0.13070777 0.70678431
0.10536312 0.1309057 0.70785463
0.10680208 0.13110435 0.70892876
0.10825147 0.13131095 0.71004599
0.10970642 0.13151939 0.71117306
0.11116774 0.13173056 0.7123149
0.11262692 0.13193439 0.71341711
0.11409298 0.13214159 0.7145375
0.1155661 0.13235223 0.71567655
0.11703958 0.13255864 0.7167927
0.11851972 0.13276799 0.71792471
0.12000185 0.13297501 0.71904415
0.12149199 0.13318641 0.72018725
0.12298325 0.13339454 0.72131264
0.12447806 0.1336021 0.72243506
0.1259791 0.133812 0.72356999
0.12748401 0.13402165 0.72470373
0.12899311 0.13423142 0.72583795
0.13050543 0.13444026 0.72696728
0.13202508 0.13465244 0.7281146
0.13354921 0.13486496 0.72926378
0.13508344 0.13508344 0.73044515
0.13661884 0.13529885 0.73161
0.13815255 0.13550849 0.73274356
0.13969746 0.13572502 0.73391443
0.14125369 0.13594839 0.73512226
0.14281501 0.13617244 0.73633385
0.144382 0.13639773 0.73755205
0.14595278 0.13662246 0.73876721
0.14753887 0.13685732 0.7400372
0.14912564 0.1370886 0.74128777
0.15069455 0.13729948 0.74242806
0.15230389 0.13754316 0.74374574
0.15390712 0.13777712 0.74501085
0.15551597 0.13801201 0.74628103
0.15712954 0.13824701 0.7475518
0.15875469 0.13848813 0.74885559
0.16037339 0.13871959 0.75010717
0.1620305 0.13898014 0.75151604
0.16368258 0.13923207 0.75287831
0.16532704 0.13947344 0.75418347
0.16699144 0.13972753 0.75555748
0.16866672 0.13998654 0.75695807
0.17035596 0.14025289 0.75839829
0.17206062 0.14052759 0.7598837
0.17377774 0.14080805 0.76140022
0.17552562 0.14110883 0.76302665
0.17728961 0.14141779 0.76469725
0.1790906 0.14175126 0.76650047
0.076556623 0.13544634 0.72533107
0.077637903 0.1350508 0.72321296
0.078732744 0.13469155 0.72128916
0.079853699 0.13438793 0.7196632
0.080875307 0.13392951 0.71720827
0.082010642 0.13367088 0.71582335
0.083146624 0.13342132 0.7144869
0.084271081 0.13316117 0.71309376
0.085392997 0.13290489 0.71172136
0.086519085 0.13266259 0.71042383
0.087651044 0.13243625 0.70921171
0.088778503 0.1322097 0.70799857
0.08991041 0.13199612 0.70685482
0.091045007 0.13179243 0.70576394
0.092181705 0.13159733 0.70471919
0.093315221 0.13140307 0.70367891
0.094435506 0.13119563 0.70256805
0.095609263 0.13106701 0.70187926
0.096887544 0.13108315 0.70196569
0.098266169 0.13123289 0.70276755
0.099667214 0.13140836 0.70370728
0.10107528 0.13158856 0.70467228
0.1024937 0.13177761 0.70568466
0.10392133 0.13197371 0.70673478
0.10535464 0.13217218 0.70779759
0.10679402 0.13237342 0.7088753
0.10824086 0.13257904 0.70997638
0.10969406 0.13278754 0.71109295
0.11115594 0.13300161 0.71223933
0.11261506 0.13320753 0.71334201
0.11407998 0.13341556 0.71445608
0.11555384 0.13362931 0.71560067
0.11702335 0.13383333 0.71669328
0.11850812 0.13405018 0.71785444
0.11999117 0.13426039 0.71898019
0.12147929 0.13447171 0.72011191
0.12296942 0.13468079 0.72123152
0.12446167 0.13488777 0.72233993
0.12596297 0.13510019 0.72347742
0.1274675 0.13531165 0.72460979
0.12897138 0.13551816 0.7257157
0.13048607 0.13573174 0.72685945
0.13200743 0.13594796 0.72801733
0.13353194 0.13616312 0.72916949
0.13506269 0.13638039 0.73033303
0.13659734 0.13659734 0.73149478
0.13813429 0.13681242 0.73264664
0.13968234 0.13703433 0.73383498
0.14123806 0.13725953 0.7350409
0.14279898 0.13748552 0.73625118
0.14436591 0.13771309 0.73746985
0.14593759 0.13794102 0.73869038
0.14752488 0.13817941 0.73996699
0.14910288 0.13840492 0.74117464
0.15068394 0.13862921 0.74237579
0.1522896 0.13887201 0.74367601
0.15389401 0.13910943 0.74494737
0.15550362 0.13934739 0.74622172
0.15711926 0.13958664 0.74750292
0.15874258 0.13982856 0.74879843
0.16036631 0.14006677 0.75007409
0.16201879 0.1403259 0.75146174
0.16366546 0.14057572 0.75279957
0.16532066 0.14082871 0.75415438
0.16698356 0.14108407 0.75552183
0.16866063 0.14134717 0.75693071
0.17035 0.14161627 0.75837177
0.17205204 0.14189152 0.75984579
0.17377542 0.14217989 0.76139003
0.17551331 0.14247552 0.76297313
0.17729343 0.14280055 0.76471376
0.17908707 0.14313136 0.76648533
0.076548129 0.13673982 0.7252506
0.077628821 0.13633969 0.72312838
0.078725345 0.13598014 0.72122139
0.079839654 0.13566251 0.71953666
0.080872744 0.13521923 0.71718556
0.082003511 0.13495067 0.71576113
0.083139293 0.13469854 0.71442389
0.084263951 0.13443638 0.71303344
0.08539021 0.13418461 0.71169811
0.086510226 0.13393065 0.71035111
0.08764293 0.13370346 0.70914608
0.088772647 0.1334783 0.7079519
0.089903161 0.13326071 0.70679784
0.091036484 0.13305333 0.70569789
0.092172943 0.13285618 0.70465225
0.093309447 0.13266444 0.70363533
0.094430476 0.13245617 0.70253068
0.095600098 0.13232067 0.70181197
0.09688054 0.13234009 0.70191497
0.098262236 0.13249554 0.70273942
0.099661179 0.13266997 0.70366466
0.10107049 0.13285367 0.70463896
0.10248782 0.1330432 0.70564419
0.1039133 0.13323852 0.70668018
0.10534585 0.13343808 0.70773858
0.10678587 0.1336422 0.70882118
0.10823147 0.13384838 0.7099148
0.10968261 0.13405652 0.71101874
0.11114259 0.13427053 0.71215379
0.11260131 0.13447814 0.71325493
0.11406641 0.13468859 0.71437114
0.115541 0.13490541 0.71552116
0.11701203 0.13511334 0.71662396
0.11849481 0.13533014 0.7177738
0.11998152 0.13554668 0.71892238
0.12146545 0.13575549 0.72002989
0.12294951 0.13596004 0.72111475
0.12444491 0.1361727 0.72224265
0.12594622 0.13638736 0.72338122
0.12744631 0.13659631 0.72448939
0.12895046 0.13680531 0.72559798
0.13046892 0.13702515 0.7267639
0.13198999 0.13724332 0.72792107
0.13351706 0.13746336 0.72908819
0.13504861 0.1376837 0.73025686
0.1365826 0.13790223 0.73141587
0.13811769 0.13811769 0.73255861
0.13966724 0.13834338 0.73375565
0.14122365 0.13857156 0.73496592
0.14278094 0.13879636 0.73615819
0.14434984 0.13902818 0.73738778
0.14592393 0.13926074 0.73862123
0.14750794 0.13949846 0.73988205
0.14909118 0.1397312 0.74111646
0.15067492 0.13996027 0.74233145
0.15227544 0.14020073 0.74360687
0.15388069 0.14044133 0.74488288
0.1554918 0.14068305 0.74616504
0.15710872 0.14092585 0.7474528
0.15872908 0.14116757 0.74873477
0.160357 0.14141187 0.75003052
0.16199553 0.14166136 0.7513538
0.16366141 0.14193043 0.75278091
0.16531354 0.14218324 0.75412184
0.16697688 0.14244151 0.75549161
0.16865636 0.14270923 0.75691158
0.17035131 0.14298564 0.75837761
0.17205213 0.14326254 0.75984621
0.17377549 0.14355367 0.76139039
0.17551066 0.14384991 0.76296163
0.17729393 0.14418066 0.76471585
0.17907067 0.14450105 0.76641512
0.076542646 0.13803844 0.72519863
0.077612042 0.13761464 0.7229721
0.078716598 0.13726613 0.72114122
0.079827935 0.13694061 0.71943104
0.080865994 0.1365018 0.71712571
0.081996195 0.13622989 0.71569723
0.0831303 0.13597281 0.71434665
0.084251873 0.1357034 0.71293122
0.085379235 0.13545126 0.71160662
0.086507604 0.13520817 0.71032953
0.087628879 0.13496126 0.70903236
0.08876542 0.13474463 0.70789427
0.08989428 0.13452265 0.70672804
0.091029666 0.1343165 0.70564502
0.092164256 0.13411488 0.70458579
0.093306646 0.13392995 0.70361423
0.094410062 0.13369478 0.70237881
0.095594533 0.13357911 0.70177108
0.096877724 0.1336026 0.70189452
0.098255135 0.13375376 0.70268863
0.099653825 0.13392967 0.70361274
0.10106578 0.13411875 0.70460612
0.10248165 0.13430825 0.70560169
0.10390254 0.13449961 0.70660698
0.10533691 0.13470356 0.7076785
0.10677774 0.13491079 0.70876718
0.10822304 0.13511871 0.70985949
0.10967443 0.13532926 0.71096569
0.11113019 0.13554028 0.71207428
0.11258537 0.13574578 0.7131539
0.11405549 0.13596445 0.71430272
0.11552652 0.1361793 0.71543145
0.11700023 0.13639253 0.71655166
0.11847346 0.13660055 0.71764451
0.11995757 0.13681647 0.71877891
0.12144053 0.13702649 0.71988219
0.12292038 0.13722856 0.72094387
0.12442712 0.13745613 0.72213942
0.12593299 0.13767803 0.72330517
0.12743142 0.13788733 0.72440475
0.12893561 0.13809854 0.72551435
0.13045272 0.13831921 0.72667366
0.1319719 0.13853766 0.72782129
0.13350016 0.13876124 0.72899592
0.13503206 0.13898422 0.73016733
0.13657068 0.13920972 0.73135203
0.13810886 0.13943048 0.73251182
0.13965374 0.13965374 0.73368478
0.14121041 0.13988449 0.73489702
0.14277296 0.14011671 0.73611701
0.14434338 0.14035232 0.73735482
0.14591306 0.1405829 0.73856622
0.14749502 0.14082104 0.73981726
0.14907962 0.1410574 0.74105901
0.15066943 0.14129443 0.74230433
0.15226893 0.14153633 0.7435751
0.15387265 0.14177786 0.74484402
0.1554815 0.1420199 0.74611562
0.15709826 0.14226496 0.74740303
0.15872104 0.14251123 0.74869686
0.16035093 0.1427597 0.75000221
0.16199647 0.14301781 0.75135821
0.16365467 0.14328273 0.75274998
0.1653057 0.14353704 0.75408608
0.16697049 0.14379908 0.75546271
0.16865154 0.14407074 0.75688994
0.17034645 0.1443498 0.75835598
0.17205215 0.14463347 0.75984627
0.17377312 0.14492542 0.76138002
0.17551945 0.14523374 0.76299983
0.17729238 0.1455591 0.76470917
0.17906582 0.14587988 0.76639438
0.076544821 0.13935083 0.72521925
0.077610537 0.13891633 0.72295803
0.078708135 0.13855234 0.72106367
0.07982 0.13822488 0.71935952
0.080857225 0.13778071 0.71704793
0.081987806 0.13750711 0.71562403
0.083121516 0.13724716 0.71427119
0.08424262 0.13697465 0.71285295
0.085369803 0.13672006 0.711528
0.086499877 0.13647759 0.71026611
0.087623395 0.136232 0.70898801
0.088750966 0.13599968 0.70777899
0.089886189 0.13578552 0.70666444
0.091022052 0.1355783 0.70558602
0.092158161 0.13537717 0.70453924
0.093301482 0.13519195 0.70357531
0.094406106 0.13495637 0.70234936
0.095593281 0.1348435 0.7017619
0.096876808 0.13486771 0.70188791
0.098255754 0.13502242 0.70269305
0.099652603 0.13519748 0.7036041
0.10106268 0.13538584 0.70458442
0.10247419 0.13557145 0.70555031
0.10389395 0.13576326 0.70654857
0.10532787 0.1359687 0.70761776
0.10676847 0.13617775 0.70870572
0.10821804 0.13639314 0.70982671
0.10966627 0.13660185 0.71091282
0.11111328 0.13680421 0.71196598
0.11256896 0.13701251 0.71305001
0.1140413 0.13723615 0.71421385
0.115507 0.13744688 0.71531057
0.11697781 0.13765897 0.71641439
0.11845102 0.13786922 0.71750855
0.11992884 0.13808024 0.71860677
0.12141067 0.1382913 0.71970516
0.12290368 0.1385105 0.72084594
0.12441332 0.13874364 0.72205931
0.12591754 0.13896598 0.72321641
0.12741661 0.13917814 0.72432053
0.12891994 0.13939059 0.7254262
0.13043772 0.13961425 0.72659016
0.13195573 0.13983367 0.72773212
0.13348286 0.14005837 0.72890145
0.13501522 0.14028411 0.73007625
0.13655254 0.14051059 0.73125494
0.13809675 0.14073975 0.73244756
0.13964085 0.14096446 0.73361707
0.14120159 0.14120159 0.73485112
0.14276628 0.14143822 0.73608261
0.14433111 0.14167063 0.73729211
0.14590175 0.14190444 0.73850894
0.14748433 0.14214554 0.73976368
0.14907183 0.14238699 0.74102026
0.15065692 0.14262189 0.74224275
0.15225877 0.14286835 0.74352545
0.15386283 0.14311258 0.74479645
0.15547174 0.14335707 0.74606878
0.15708774 0.14360382 0.74735296
0.15871026 0.14385226 0.74864596
0.16034095 0.14410388 0.74995548
0.16199403 0.14437124 0.75134683
0.16364385 0.1446313 0.75270021
0.16529769 0.14489056 0.75404954
0.16696621 0.14515838 0.75544333
0.1686479 0.14543322 0.75687361
0.17034145 0.14571376 0.75833368
0.17204648 0.14599961 0.7598213
0.17377071 0.14629708 0.76136941
0.17551632 0.14660776 0.76298624
0.17728461 0.14693239 0.76467574
0.17905401 0.14725292 0.76634383
0.076537222 0.14064533 0.72514725
0.0776041 0.14020908 0.72289807
0.07869827 0.13983577 0.72097331
0.079820365 0.1395234 0.7193628
0.080845587 0.13905442 0.71694475
0.081979714 0.13878456 0.7155534
0.083112411 0.13852069 0.71419293
0.084236629 0.13825095 0.71280223
0.085359804 0.13798764 0.71144468
0.086490735 0.13774452 0.71019107
0.087621666 0.13750845 0.708974
0.088751115 0.1372769 0.70778018
0.089885786 0.1370599 0.70666128
0.091019817 0.13684797 0.70556867
0.092152655 0.13664015 0.7044971
0.093290262 0.13644494 0.70349067
0.094403453 0.13621975 0.70232964
0.09559039 0.13610552 0.70174068
0.096876472 0.1361336 0.70188546
0.098253623 0.13628729 0.70267785
0.099652849 0.13646728 0.70360583
0.10105505 0.13664676 0.70453125
0.10246688 0.13683465 0.70550001
0.10389028 0.13703319 0.7065236
0.10531944 0.13723442 0.70756114
0.10676074 0.13744646 0.7086544
0.10820808 0.13766116 0.70976132
0.10964717 0.13786048 0.71078897
0.11110159 0.13807423 0.71189106
0.11255239 0.13827865 0.71294504
0.11402022 0.13849914 0.71408182
0.11549059 0.13871774 0.71520895
0.1169552 0.13892469 0.71627587
0.11843053 0.1391397 0.71738446
0.11991788 0.13936402 0.71854103
0.12140132 0.13957907 0.71964979
0.12289062 0.13979621 0.72076935
0.12439848 0.14002971 0.72197324
0.12589402 0.14024465 0.72308141
0.12739773 0.14046417 0.72421324
0.12890092 0.14067866 0.72531915
0.13041893 0.14090487 0.72648543
0.13194305 0.14113311 0.72766221
0.13347101 0.14136094 0.72883683
0.13500236 0.14158784 0.73000675
0.13654244 0.14181945 0.73120087
0.13808264 0.14204673 0.73237276
0.13963044 0.14227745 0.73356229
0.14118978 0.14251551 0.73478967
0.1427507 0.1427507 0.73600227
0.14431517 0.14298508 0.73721069
0.14589107 0.14322639 0.73845488
0.14747581 0.14347194 0.73972088
0.1490629 0.14371535 0.74097592
0.15064697 0.14395155 0.7421937
0.15224707 0.14419878 0.74346834
0.15385298 0.14444713 0.74474883
0.15546304 0.14469503 0.74602699
0.15707907 0.14494421 0.74731171
0.15870379 0.14519709 0.7486155
0.1603336 0.14545031 0.74992108
0.16199012 0.14572334 0.75132877
0.1636342 0.14598072 0.75265574
0.16529216 0.14624615 0.75402433
0.16696514 0.14652044 0.75543851
0.16864678 0.14679781 0.7568686
0.17034228 0.1470827 0.75833744
0.17204276 0.14736731 0.75980484
0.17376949 0.14766972 0.76136404
0.17551337 0.14798187 0.76297343
0.17728209 0.14830992 0.76466483
0.17906611 0.14864561 0.76639557
0.076526828 0.14193438 0.72504878
0.077598646 0.14150341 0.72284728
0.078690864 0.14112329 0.72090548
0.07971023 0.140627 0.71837026
0.080837272 0.1403335 0.71687102
0.081972152 0.14006266 0.71548742
0.083104283 0.13979557 0.71412307
0.084230646 0.1395271 0.71275163
0.085349798 0.13925493 0.71136129
0.086482257 0.13901222 0.71012145
0.087610967 0.13877065 0.70888746
0.088741452 0.13853881 0.70770311
0.089877971 0.13832285 0.70659983
0.09101072 0.13810718 0.70549816
0.092147022 0.13790278 0.70445406
0.093283303 0.13770393 0.70343822
0.094400212 0.13748218 0.7023055
0.095586531 0.13736607 0.70171237
0.09686517 0.13738392 0.70180357
0.098251373 0.13755192 0.70266175
0.099645972 0.13772725 0.70355731
0.10104895 0.13790956 0.70448869
0.10246146 0.13810022 0.70546263
0.10388406 0.13829964 0.70648134
0.10531278 0.13850226 0.70751637
0.10674474 0.13870424 0.70854819
0.10819414 0.13892382 0.70966989
0.10964186 0.13913617 0.71075457
0.11108983 0.13934389 0.71181571
0.1125409 0.13955072 0.71287227
0.11400948 0.13977434 0.71401459
0.11547405 0.13998808 0.71510649
0.11693823 0.14019667 0.71617198
0.1184164 0.14041726 0.71729887
0.11990281 0.14064276 0.71845078
0.12139068 0.14086512 0.71958667
0.12287948 0.14108385 0.72070402
0.12438303 0.14131474 0.72188354
0.12589023 0.14154497 0.72305954
0.12738253 0.1417539 0.72412682
0.12888496 0.14196973 0.72522938
0.13040161 0.14219673 0.72638899
0.13192736 0.14242904 0.72757566
0.13345642 0.14266032 0.72875714
0.13499033 0.14289221 0.72994173
0.1365371 0.1431331 0.73117226
0.13806954 0.14335451 0.73230326
0.1396206 0.14359085 0.73351061
0.14117146 0.14382257 0.7346943
0.14273334 0.14406109 0.73591274
0.14430556 0.14430556 0.73716158
0.14588499 0.14455271 0.73842412
0.14747213 0.14480296 0.73970246
0.14905463 0.14504419 0.74093479
0.15063839 0.14528236 0.74215138
0.15223759 0.14553109 0.74342203
0.15384586 0.14578407 0.74471432
0.15545572 0.14603417 0.74599189
0.15707454 0.14628831 0.74729013
0.1587019 0.14654601 0.74860656
0.16033404 0.14680374 0.74992311
0.16198058 0.14707024 0.75128454
0.16363239 0.14733705 0.75264746
0.1652896 0.14760429 0.75401264
0.16696216 0.14788076 0.75542498
0.16864569 0.14816241 0.75686371
0.17034225 0.14845088 0.75833732
0.17204043 0.14873615 0.75979453
0.17376657 0.14904089 0.76135129
0.17551012 0.14935568 0.7629593
0.17727542 0.14968391 0.76463604
0.17905897 0.15002239 0.76636505
0.076511681 0.14321417 0.72490525
0.077589087 0.14279 0.72275823
0.078681827 0.14240761 0.72082269
0.079703182 0.14191055 0.71830672
0.080828138 0.14161091 0.71679002
0.081964605 0.14134054 0.7154215
0.083095498 0.1410691 0.71404761
0.084218197 0.14079225 0.71264625
0.085340098 0.14052242 0.71128047
0.086473934 0.14027993 0.71005309
0.087599725 0.14003167 0.70879644
0.088730685 0.1397987 0.70761722
0.089865685 0.13957861 0.70650321
0.090998784 0.13936178 0.70540565
0.092136569 0.13915798 0.70437413
0.093269981 0.13895324 0.70333773
0.094389647 0.13873379 0.70222694
0.095581599 0.13862497 0.70167613
0.096865319 0.13865036 0.7018047
0.098249301 0.13881676 0.70264691
0.099640325 0.13898873 0.70351744
0.10104575 0.13917622 0.7044664
0.10245709 0.1393671 0.70543259
0.10387851 0.13956684 0.70644361
0.10530505 0.13976853 0.70746446
0.10673711 0.13997263 0.70849758
0.1081815 0.14018786 0.70958704
0.10963205 0.14040595 0.71069092
0.11107949 0.14061509 0.71174949
0.11253241 0.14082628 0.7128185
0.11399993 0.14105076 0.71395475
0.11547095 0.14127451 0.71508729
0.1169342 0.14148393 0.7161473
0.11840473 0.14169747 0.71722817
0.11988947 0.1419232 0.7183708
0.12137672 0.14214706 0.71950388
0.12286813 0.14237101 0.72063744
0.1243668 0.14259858 0.72178936
0.12587377 0.14283086 0.72296506
0.12736826 0.14304435 0.72404569
0.12887692 0.14326929 0.7251842
0.13039218 0.14349693 0.72633648
0.13191508 0.14372836 0.72750795
0.13344364 0.14396137 0.72868735
0.1349785 0.14419654 0.72987771
0.13652168 0.14443597 0.73108965
0.13805768 0.14466332 0.73224038
0.1396078 0.14490099 0.73344344
0.14116168 0.14513807 0.7346434
0.14272967 0.1453851 0.73589385
0.14429922 0.14562917 0.73712921
0.14587308 0.14587308 0.73836386
0.14746052 0.14612605 0.73964423
0.14903527 0.14636201 0.74083859
0.15063743 0.14662042 0.74214667
0.15223369 0.14686863 0.74340296
0.15383954 0.14712165 0.74468374
0.15544918 0.1473739 0.74596047
0.15706739 0.14762986 0.7472561
0.1586919 0.14788735 0.74855942
0.1603328 0.14815561 0.74991733
0.16197257 0.14841838 0.75124735
0.16362447 0.14868779 0.75261104
0.16528602 0.14896147 0.75399631
0.16695897 0.14924088 0.75541055
0.16864242 0.14952506 0.75684899
0.17033656 0.14981408 0.75831193
0.17203949 0.15010618 0.75979042
0.17376269 0.15041119 0.7613343
0.17550145 0.15072477 0.76292157
0.17725858 0.15104914 0.76456344
0.17904629 0.15139435 0.76631075
0.076502405 0.14450455 0.7248174
0.077571362 0.1440611 0.72259313
0.078672305 0.14369074 0.72073543
0.079677314 0.14316005 0.71807355
0.080820836 0.14289124 0.71672523
0.081955098 0.14261477 0.71533853
0.083085991 0.14234112 0.71396589
0.084205739 0.14205702 0.71254086
0.085330606 0.14178994 0.71120131
0.08646141 0.14154053 0.70995027
0.087589778 0.14129445 0.70871598
0.088719226 0.14105718 0.70752585
0.08985509 0.1408367 0.70641994
0.090989046 0.14061943 0.70533013
0.092124626 0.14041063 0.70428282
0.093263336 0.14021224 0.70328766
0.094375491 0.13997976 0.70212162
0.095569506 0.13987325 0.70158738
0.096864574 0.1399155 0.70179927
0.098245993 0.14007977 0.70262325
0.099636979 0.14025332 0.70349377
0.10104254 0.14044277 0.70444405
0.10245273 0.14063387 0.70540255
0.10387313 0.14083411 0.70640695
0.10529912 0.141037 0.70742458
0.10673146 0.14124343 0.70846003
0.10817067 0.14145395 0.70951599
0.10962099 0.14167391 0.71061927
0.11106762 0.14188406 0.71167338
0.11252133 0.14209837 0.71274829
0.11398948 0.14232585 0.7138893
0.11545826 0.14254902 0.71500874
0.11692041 0.14275917 0.71606284
0.11838936 0.14297295 0.71713507
0.11987696 0.14320438 0.71829587
0.12136535 0.14343178 0.71943653
0.12285729 0.14365852 0.72057384
0.1243527 0.14388454 0.72170752
0.12585723 0.14411631 0.72287005
0.12735167 0.14433189 0.7239514
0.12886451 0.14456375 0.72511435
0.13038194 0.14479603 0.72627944
0.13190329 0.145028 0.72744298
0.13343385 0.14526543 0.72863388
0.13496906 0.14550322 0.72982663
0.13650724 0.14573963 0.7310124
0.13804913 0.1459754 0.73219502
0.13959512 0.14621101 0.7333768
0.14115769 0.14645939 0.73462266
0.14272355 0.14670652 0.73586226
0.14429139 0.14695112 0.73708916
0.1458606 0.14719266 0.73830062
0.14744525 0.14744525 0.73956758
0.14903031 0.14769372 0.74081391
0.15062894 0.1479511 0.74210489
0.15222865 0.148205 0.7433784
0.15382908 0.14845513 0.74463308
0.15544604 0.14871676 0.74594539
0.15706342 0.14897433 0.74723727
0.15869154 0.14923757 0.74855769
0.16032854 0.14950468 0.74989742
0.161971 0.14977235 0.75124007
0.16362107 0.15004255 0.75259537
0.16528292 0.15031904 0.75398219
0.16695617 0.15060128 0.75539792
0.16864024 0.15088864 0.75683922
0.17033438 0.15118031 0.75830227
0.17204064 0.15147802 0.75979549
0.17375742 0.15178019 0.76131117
0.17549191 0.15209299 0.76288015
0.17726067 0.15243039 0.76457244
0.17904651 0.15277714 0.76631171
0.076495439 0.145799 0.72475135
0.07756976 0.14536183 0.72257823
0.078664094 0.14497598 0.72066021
0.079661317 0.14442661 0.71792942
0.080812164 0.1441689 0.71664834
0.081945784 0.14388905 0.71525723
0.083076492 0.14361286 0.71388429
0.084205739 0.1433426 0.71254086
0.085335068 0.14308059 0.7112385
0.086457781 0.14281544 0.70992047
0.08757621 0.14255105 0.70860618
0.08870551 0.14231172 0.70741647
0.089833103 0.14207648 0.70624709
0.090972163 0.14186569 0.7051993
0.092116423 0.14166871 0.70422012
0.093255647 0.14146945 0.70322967
0.094366565 0.14123319 0.70205522
0.09556365 0.14113043 0.7015444
0.096866652 0.14118473 0.70181435
0.098242283 0.14134212 0.70259672
0.099636666 0.14152214 0.70349157
0.10103963 0.14170967 0.70442379
0.10244887 0.14190124 0.70537603
0.10386596 0.14209883 0.70635819
0.10529299 0.14230508 0.70738345
0.10672473 0.14251266 0.70841539
0.10816543 0.14272717 0.7094816
0.10960924 0.1429407 0.7105431
0.1110569 0.14315426 0.71160471
0.11250972 0.14336953 0.71267474
0.11397718 0.14359838 0.71381229
0.1154424 0.1438193 0.71491051
0.11691096 0.14403947 0.71600497
0.11838171 0.14425749 0.7170887
0.11986882 0.14449053 0.71824712
0.12135583 0.14471845 0.71938008
0.12283873 0.14493671 0.720465
0.12433691 0.14516822 0.72161585
0.12584552 0.14540701 0.72280282
0.12734589 0.14563146 0.72391856
0.12885085 0.14585653 0.7250374
0.13036735 0.14609005 0.72619814
0.1318927 0.14632872 0.72738457
0.13342308 0.14656819 0.72857499
0.13495713 0.14680703 0.7297622
0.13650168 0.14705254 0.7309826
0.13804196 0.14728878 0.73215693
0.13958991 0.14752866 0.73334938
0.14115278 0.14777969 0.73459715
0.1427138 0.14802408 0.73581201
0.14428505 0.1482745 0.73705685
0.1458521 0.14851607 0.73825765
0.14743343 0.14876767 0.73950833
0.14903527 0.14903527 0.74083859
0.15062684 0.14928794 0.74209452
0.15222393 0.14954157 0.74335533
0.15382457 0.14979424 0.74461126
0.15544291 0.1500596 0.74593037
0.15706502 0.15032403 0.74724483
0.15868869 0.15058544 0.74854428
0.16032358 0.15085298 0.74987417
0.16196854 0.15112546 0.75122863
0.16361675 0.15139641 0.75257552
0.16528064 0.1516773 0.75397176
0.16695358 0.15196183 0.75538617
0.16864125 0.15225506 0.75684375
0.17033657 0.15255041 0.75831199
0.17204222 0.15285026 0.75980246
0.1737583 0.15315455 0.76131505
0.1754908 0.15346842 0.76287526
0.17726289 0.15381177 0.76458198
0.17904723 0.15416035 0.7663148
0.076488577 0.14709342 0.72468638
0.07756111 0.14664917 0.72249764
0.078655131 0.14625955 0.72057813
0.079648994 0.14569937 0.71781832
0.080802694 0.14544486 0.71656436
0.081936553 0.14516319 0.7151767
0.083067238 0.14488472 0.71380478
0.084194645 0.14460912 0.71244699
0.085325658 0.14434792 0.71116012
0.086455829 0.14409305 0.70990443
0.087579653 0.1438352 0.70863408
0.08870618 0.14358914 0.70742184
0.089827627 0.14334196 0.706204
0.090964839 0.14312649 0.7051425
0.092108488 0.14292698 0.7041595
0.093241736 0.14271694 0.70312476
0.094362564 0.1424938 0.70202541
0.095561609 0.14239313 0.70152938
0.096864522 0.14244783 0.70179892
0.098239802 0.14260615 0.70257896
0.099634849 0.1427888 0.70347875
0.10103615 0.14297569 0.70439953
0.1024452 0.14316875 0.7053507
0.10385878 0.14336334 0.70630938
0.10528541 0.143571 0.70733249
0.10671575 0.1437787 0.70835572
0.10815822 0.14399762 0.70943433
0.10960187 0.14421299 0.71049535
0.1110479 0.14442647 0.71154708
0.11249841 0.1446408 0.71260309
0.11396551 0.14487141 0.71373922
0.11543375 0.14509828 0.71485692
0.11690319 0.14532165 0.7159574
0.11837129 0.14553846 0.71702558
0.11985511 0.14576973 0.71816492
0.12133469 0.14599094 0.71925479
0.12282103 0.14621551 0.72036117
0.12432494 0.14645608 0.72154641
0.12583102 0.1466942 0.72271955
0.12733662 0.14692686 0.72386581
0.12884349 0.14715627 0.72499603
0.13035604 0.14738747 0.72613513
0.13188122 0.14762823 0.72732127
0.13341303 0.14787158 0.72852015
0.13494657 0.14811209 0.72970504
0.13649051 0.14835925 0.73092276
0.13804223 0.14861004 0.73215836
0.13958478 0.14884633 0.73332244
0.14114724 0.1490992 0.7345683
0.14270641 0.14934392 0.73577392
0.14427738 0.14959636 0.73701763
0.14584808 0.14984392 0.73823726
0.14742464 0.15009296 0.73946422
0.14902045 0.15035695 0.74076486
0.15062055 0.15062055 0.74206352
0.15222473 0.15088356 0.74335927
0.1538201 0.15113328 0.74458963
0.15543516 0.15139788 0.74589324
0.15705837 0.15166582 0.74721324
0.15867707 0.15192485 0.74848944
0.16031764 0.1522003 0.74984646
0.16196263 0.15247527 0.75120121
0.16361502 0.15275261 0.75256753
0.16527872 0.15303585 0.75396299
0.16695356 0.15332471 0.75538611
0.16863848 0.15361805 0.75683135
0.17033303 0.15391538 0.75829619
0.17204112 0.15422012 0.75979757
0.17375796 0.15452783 0.76131356
0.17548756 0.15484196 0.76286119
0.17726204 0.1551905 0.76457834
0.17904334 0.15553959 0.76629817
0.076469496 0.1483639 0.7245056
0.077542827 0.14791784 0.72232735
0.078641333 0.14753374 0.72045171
0.079665154 0.1470243 0.71796399
0.080794282 0.14672241 0.71648973
0.08192753 0.14643739 0.7150979
0.083059929 0.14615972 0.71374196
0.084187888 0.14588282 0.71238977
0.085317574 0.14561722 0.71109271
0.086450167 0.14536436 0.70985794
0.08757446 0.14510512 0.70859206
0.088703953 0.14486186 0.70740408
0.089834802 0.14462766 0.70626044
0.090966888 0.14440198 0.70515835
0.092101127 0.1441859 0.70410317
0.093237132 0.14397842 0.70309001
0.094350554 0.14374211 0.70193607
0.095553927 0.1436473 0.701473
0.096863836 0.14371301 0.70179391
0.098239489 0.14387332 0.70257676
0.099634223 0.14405712 0.70347434
0.10103275 0.14424172 0.7043758
0.10244115 0.14443566 0.70532286
0.10385414 0.14463122 0.70627785
0.10527775 0.14483666 0.70728105
0.10670738 0.14504535 0.70830017
0.10815123 0.14526822 0.70938849
0.109598 0.14548975 0.71047026
0.11104339 0.14570433 0.71151811
0.11248764 0.14591253 0.71253484
0.11395343 0.14614367 0.71366358
0.11542328 0.14637478 0.71479213
0.1168889 0.14659546 0.71586984
0.11835752 0.14681506 0.71694219
0.11983255 0.14703779 0.7180298
0.12131912 0.14726973 0.71916246
0.12281392 0.14750665 0.72031945
0.12431334 0.14774412 0.72147906
0.12581564 0.14798006 0.72263122
0.12732059 0.14821424 0.72377473
0.1288311 0.14845005 0.72492629
0.13034464 0.14868459 0.72607166
0.13186967 0.14892744 0.72725755
0.13340329 0.14917511 0.72846699
0.1349417 0.14942326 0.72967875
0.13647692 0.14966309 0.73084998
0.138033 0.14992101 0.73210949
0.13957837 0.15016252 0.73328882
0.14114133 0.15041822 0.73453748
0.14270742 0.1506725 0.73577917
0.14427228 0.15092076 0.73699158
0.14584658 0.15117431 0.73822969
0.14742444 0.15142693 0.73946327
0.1490109 0.15168373 0.74071735
0.15060322 0.15194191 0.74197811
0.15220647 0.15220647 0.74327004
0.15381621 0.15247284 0.74457079
0.15542792 0.15273651 0.74585843
0.15705231 0.15300804 0.74718434
0.158676 0.15327425 0.74848437
0.16031635 0.15355195 0.74984044
0.16196199 0.15383001 0.75119823
0.16361423 0.15410967 0.75256395
0.16527687 0.15439445 0.75395459
0.16695093 0.15468514 0.75537413
0.16863476 0.15498012 0.7568146
0.17032769 0.15527865 0.75827247
0.17203668 0.15558696 0.75977796
0.17375575 0.15589944 0.7613039
0.17548922 0.15621981 0.7628684
0.17725602 0.15656465 0.76455235
0.17904046 0.15691963 0.76628584
0.076465122 0.14966249 0.72446412
0.07752829 0.14919311 0.72219193
0.078630567 0.14881322 0.72035307
0.07964886 0.14828934 0.71781713
0.080785148 0.14799839 0.71640873
0.081918538 0.14771137 0.7150194
0.083053283 0.14743568 0.71368486
0.084183291 0.1471601 0.7123509
0.085303873 0.14687659 0.71097851
0.086435601 0.14662039 0.70973831
0.087566219 0.14636981 0.70852536
0.088694192 0.14612208 0.70732623
0.089823909 0.14588422 0.70617479
0.090963416 0.14566869 0.70513147
0.092098638 0.14545234 0.70408416
0.093229137 0.14523451 0.70302975
0.094337933 0.14498918 0.70184219
0.095552169 0.14491025 0.70146012
0.096863098 0.14497811 0.7017886
0.098238438 0.14513937 0.70256925
0.099632382 0.14532366 0.70346135
0.10103025 0.14550899 0.7043584
0.10243647 0.14570156 0.70529062
0.10385027 0.14590007 0.7062515
0.10527115 0.14610359 0.70723671
0.10670222 0.14631622 0.7082659
0.10814491 0.14653955 0.70934701
0.10958485 0.14675398 0.71038502
0.11103171 0.14697261 0.71144331
0.11248375 0.14719303 0.71251029
0.11394114 0.14741537 0.71358657
0.11541472 0.14765346 0.71473908
0.11687573 0.14787041 0.7157892
0.118348 0.14809668 0.71688455
0.11982546 0.14832449 0.7179873
0.12131326 0.14856008 0.71912771
0.12280681 0.14879768 0.72027779
0.12430376 0.14903435 0.72142345
0.12580855 0.14927542 0.72259045
0.127307 0.14950411 0.72369742
0.12882502 0.14975092 0.72489214
0.13033544 0.14998399 0.72602034
0.13186492 0.15023416 0.72723132
0.13339688 0.15048219 0.72843194
0.13493338 0.15073046 0.72963375
0.13647555 0.1509802 0.73084265
0.13802153 0.15122932 0.73204857
0.13957097 0.1514775 0.7332499
0.14113212 0.15173359 0.73448956
0.14269678 0.15198867 0.73572433
0.1442669 0.15224481 0.73696417
0.14584349 0.15250301 0.73821408
0.14742132 0.15275782 0.73944753
0.14900966 0.15301889 0.74071127
0.15059584 0.15327311 0.74194181
0.15220326 0.15354426 0.74325436
0.15381412 0.15381412 0.74456072
0.15542687 0.1540812 0.74585348
0.15704846 0.15435235 0.7471661
0.15867801 0.15462665 0.74849385
0.16031154 0.15490018 0.74981791
0.16196266 0.15518597 0.75120133
0.16361217 0.15546551 0.75255448
0.1652735 0.15575157 0.75393921
0.16694914 0.15604635 0.75536609
0.16863057 0.1563417 0.75679582
0.17032316 0.15664259 0.75825232
0.17203029 0.15695193 0.75974971
0.17375185 0.15726946 0.7612868
0.17549479 0.15760121 0.76289266
0.17725569 0.15794379 0.76455098
0.17904435 0.15830562 0.76630247
0.076448299 0.15093638 0.72430474
0.077514723 0.15046975 0.72206551
0.078621313 0.15009524 0.72026831
0.079644695 0.14957662 0.71777958
0.080776289 0.14927457 0.71633017
0.081910029 0.14898595 0.71494514
0.08304707 0.1487122 0.71363145
0.084181771 0.14844267 0.71233803
0.085298337 0.14814974 0.71093237
0.086430013 0.14789136 0.70969248
0.087563276 0.14764319 0.70850158
0.088693552 0.14739719 0.70732111
0.089816429 0.14714606 0.70611596
0.090956636 0.14692995 0.7050789
0.092095889 0.14671828 0.70406318
0.093226396 0.14649862 0.70300907
0.094322689 0.14623182 0.70172876
0.095552027 0.14617561 0.70145905
0.096860372 0.14624016 0.70176882
0.098236226 0.14640366 0.70255339
0.09962967 0.14658888 0.70344222
0.10102777 0.1467762 0.70434111
0.10243218 0.1469679 0.70526105
0.10384639 0.14716882 0.70622516
0.10526623 0.14737272 0.70720363
0.10669688 0.1475867 0.7082305
0.1081379 0.14780979 0.70930105
0.10958288 0.14803301 0.71037221
0.11102319 0.14824484 0.71138871
0.11247266 0.14846392 0.71244001
0.11393173 0.14869057 0.71352762
0.11540656 0.14893249 0.71468854
0.11687016 0.14915474 0.71575511
0.11834158 0.149382 0.71684563
0.1198174 0.14960983 0.71793896
0.12130677 0.14984953 0.71908927
0.12279955 0.15008834 0.72023523
0.12429682 0.15032756 0.72138321
0.12580261 0.15057203 0.72255635
0.12730746 0.15081038 0.72370011
0.12881476 0.15104674 0.72483432
0.13033581 0.15129432 0.72602242
0.13186222 0.15154316 0.72721648
0.13339083 0.15178956 0.72839892
0.13492438 0.15203674 0.72958505
0.13647279 0.15229572 0.73082787
0.13801388 0.15254167 0.7320081
0.1395614 0.15278998 0.73319966
0.14112125 0.153047 0.73443305
0.14268875 0.15330744 0.73568285
0.14426148 0.15356867 0.73693645
0.14583775 0.15382886 0.73818499
0.14741834 0.15408885 0.73943263
0.14900625 0.15435177 0.74069428
0.15059845 0.1546144 0.74195462
0.15220296 0.15488495 0.74325293
0.15381099 0.15515432 0.74454552
0.15542442 0.15542442 0.74584168
0.15704657 0.15569852 0.74715704
0.15867434 0.15597349 0.74847656
0.16031136 0.15625285 0.74981707
0.1619603 0.15653904 0.75119042
0.16361 0.15682121 0.75254446
0.16527157 0.15711001 0.75393039
0.16694905 0.1574091 0.75536567
0.16862592 0.15770279 0.75677496
0.17032023 0.15800793 0.75823927
0.17202185 0.15831493 0.75971252
0.17375168 0.15864283 0.76128602
0.17549102 0.15897422 0.76287621
0.17726134 0.15932828 0.7645753
0.17903887 0.15968332 0.76627904
0.076430693 0.15220813 0.72413796
0.077501483 0.1517466 0.72194219
0.078609891 0.15137276 0.72016364
0.079634301 0.15085196 0.71768594
0.080763459 0.15054309 0.71621644
0.081902333 0.15026176 0.71487796
0.08303611 0.14997995 0.71353728
0.084171064 0.14970884 0.71224743
0.085291885 0.14942113 0.71087861
0.086424381 0.14916208 0.70964622
0.087555662 0.14890854 0.70843995
0.088684432 0.14865808 0.70724839
0.089811653 0.14841215 0.70607841
0.09094651 0.14818557 0.7050004
0.092084415 0.14797013 0.70397544
0.093218006 0.14775372 0.70294583
0.094325833 0.14750281 0.70175213
0.095546558 0.14743277 0.70141894
0.096856095 0.1474998 0.70173782
0.098234117 0.14766806 0.70253831
0.099627003 0.14785409 0.70342338
0.10102529 0.14804335 0.70432377
0.10242816 0.14823455 0.7052334
0.10384057 0.14843467 0.70618552
0.10526015 0.14864008 0.7071628
0.1066883 0.14885253 0.70817351
0.10812647 0.14907376 0.70922607
0.10957457 0.14930336 0.71031839
0.11101518 0.14951755 0.71133739
0.11246121 0.14973406 0.71236748
0.11392225 0.14996545 0.71346825
0.11539506 0.15020698 0.71461737
0.11686578 0.15044047 0.71572822
0.11833152 0.15066254 0.71678472
0.11980922 0.15089485 0.71788996
0.1212988 0.15113701 0.71904206
0.12279226 0.15137881 0.72019243
0.12428988 0.15162064 0.72134292
0.12579478 0.15186623 0.72251135
0.12730032 0.15210755 0.72365946
0.12881152 0.15235068 0.72481614
0.13032976 0.15259716 0.72598875
0.13185151 0.15284279 0.72715735
0.13337822 0.1530893 0.72833014
0.13491549 0.15334296 0.72953695
0.13645437 0.15359358 0.73072928
0.13800295 0.15385017 0.73195004
0.1395563 0.1541072 0.73317283
0.14111631 0.15436667 0.73440731
0.14268509 0.15463081 0.73566395
0.14425653 0.15489297 0.73691118
0.14583524 0.15515804 0.73817229
0.14741865 0.15542328 0.73943418
0.14900583 0.1556877 0.7406922
0.15060045 0.15595512 0.74196446
0.15220168 0.15622464 0.74324667
0.15380955 0.15649618 0.74453855
0.15542394 0.1567696 0.74583936
0.15704624 0.15704624 0.74715549
0.1586764 0.15732595 0.74848628
0.16030838 0.15760276 0.74980313
0.16195516 0.15788934 0.75116658
0.16360928 0.15817827 0.75254118
0.16527179 0.15847048 0.7539314
0.166949 0.1587719 0.75536543
0.16862562 0.1590679 0.75677365
0.17032129 0.15937693 0.75824392
0.17201741 0.1596815 0.75969291
0.17374991 0.16001473 0.76127827
0.17548791 0.16034777 0.76286268
0.17725715 0.16070396 0.76455724
0.17903824 0.1610653 0.76627636
0.076431431 0.15351611 0.72414494
0.077494159 0.15303469 0.721874
0.078599647 0.15265222 0.72006983
0.079626523 0.15213197 0.71761584
0.080757685 0.15182446 0.71616524
0.081896111 0.15154004 0.71482366
0.08302886 0.15125413 0.71347499
0.084159538 0.15097322 0.71214992
0.085291371 0.1507028 0.71087432
0.086419284 0.15043357 0.70960432
0.087549254 0.15017572 0.70838809
0.088675655 0.14991927 0.70717841
0.089811616 0.14968604 0.70607817
0.090939678 0.14944632 0.70494747
0.092081077 0.14923485 0.70394993
0.0932175 0.14902118 0.70294201
0.094325155 0.14876786 0.70174712
0.095543727 0.14869387 0.70139813
0.096852466 0.14876032 0.70171154
0.098230526 0.14893015 0.70251262
0.099623926 0.14911862 0.70340163
0.10102043 0.14930691 0.70428985
0.10242281 0.14949913 0.70519656
0.10383417 0.14969957 0.70614201
0.10525369 0.14990677 0.70711941
0.10668118 0.15012023 0.70812631
0.10811857 0.15034239 0.70917428
0.10956573 0.15057279 0.71026111
0.11100925 0.15079291 0.71129936
0.11244945 0.15100354 0.71229297
0.1139145 0.15124242 0.71341974
0.11538664 0.15148525 0.71456522
0.11686017 0.15172453 0.71569389
0.11832359 0.15194559 0.71673667
0.1198089 0.15218969 0.71788806
0.12129589 0.15243067 0.71902478
0.12278713 0.15267183 0.72016233
0.12427549 0.15290441 0.72125942
0.12578321 0.15315571 0.72244489
0.12728722 0.15339741 0.72358501
0.12880298 0.15364823 0.7247681
0.13031729 0.15389228 0.72591931
0.13183746 0.15413833 0.72707993
0.13337353 0.15439792 0.72830445
0.1349095 0.15465234 0.72950459
0.13645269 0.15491006 0.73072022
0.13800077 0.15516832 0.73193848
0.13955493 0.15542848 0.73316568
0.14111517 0.15569046 0.7344014
0.14268175 0.15595447 0.73564678
0.14425562 0.15622154 0.73690653
0.14583258 0.15648703 0.73815888
0.14741889 0.15675764 0.73943537
0.14900558 0.15702382 0.74069095
0.15059935 0.15729265 0.74195904
0.15220052 0.1575644 0.74324095
0.15380886 0.15783879 0.74453521
0.1554234 0.15811472 0.74583679
0.15704507 0.15839309 0.74714988
