# .PCD v0.7 - Point Cloud Data file format
VERSION 0.7
FIELDS x y z
SIZE 4 4 4
TYPE F F F
COUNT 1 1 1
WIDTH 7479
HEIGHT 1
VIEWPOINT 0 0 0 1 0 0 0
POINTS 7479
DATA ascii
-0.003602609 -0.099299632 -0.017816145
-0.0025272816 -0.09932597 -0.020062108
-0.0013487265 -0.09934143 -0.021380205
-0.00012905151 -0.099352464 -0.022321541
0.0011021942 -0.09936209 -0.02314182
0.00237827 -0.099367239 -0.023580987
0.0036746338 -0.099370375 -0.023848135
0.0049960837 -0.099371135 -0.023913402
0.0063480884 -0.099369138 -0.023743231
0.0077252835 -0.099364974 -0.023387808
0.0091487691 -0.099356875 -0.022697467
0.010624483 -0.099344499 -0.021641988
0.012241349 -0.099320449 -0.019591529
-0.0037236139 -0.097972952 -0.018855948
-0.0026021972 -0.097997852 -0.020696063
-0.0014201775 -0.098015167 -0.021975715
-0.00021157414 -0.098029017 -0.022999186
0.0010385886 -0.098037913 -0.023656446
0.0023072511 -0.098044552 -0.02414735
0.0036099926 -0.098047383 -0.024356324
0.0049316511 -0.098048143 -0.024412889
0.0062754303 -0.098046601 -0.024298746
0.0076462328 -0.098042339 -0.023983914
0.0090532899 -0.098034546 -0.023407836
0.010515824 -0.098021448 -0.022439737
0.012068115 -0.097999886 -0.020846624
-0.0047285408 -0.096589372 -0.015941102
-0.0037896782 -0.096642785 -0.019423623
-0.0026568919 -0.096669391 -0.021158833
-0.0014696568 -0.096688248 -0.022388119
-0.00024858862 -0.096702278 -0.02330311
0.001003392 -0.096712068 -0.023941237
0.0022750348 -0.096719168 -0.024404246
0.0035775751 -0.096722335 -0.024611194
0.0048942044 -0.09672375 -0.024703164
0.0062365457 -0.096722104 -0.024595995
0.0076082647 -0.096717112 -0.024270196
0.0090135038 -0.096708424 -0.023703832
0.010470219 -0.096694171 -0.022774536
0.012000516 -0.096672118 -0.021336395
0.013760574 -0.096625432 -0.018292207
-0.0048726052 -0.095266797 -0.017198581
-0.0038519204 -0.0953141 -0.019958455
-0.0027015433 -0.095341153 -0.021536667
-0.0015111417 -0.095361665 -0.022733826
-0.00028485805 -0.095376536 -0.023600895
0.00096895546 -0.095387138 -0.024219889
0.0022428781 -0.095394693 -0.024660666
0.0035452992 -0.095398195 -0.024864931
0.0048628673 -0.095399588 -0.024946053
0.0062023103 -0.095398076 -0.024857718
0.0075727254 -0.0953926 -0.024538238
0.00897526 -0.095383175 -0.023988325
0.010424174 -0.095368162 -0.023112554
0.011938825 -0.095345378 -0.021783371
0.013624713 -0.095302194 -0.019263882
-0.0049701855 -0.093941063 -0.018050272
-0.0039140806 -0.093987331 -0.020492632
-0.0027519614 -0.094015196 -0.021963317
-0.0015535504 -0.09403649 -0.023087341
-0.00032152981 -0.09405192 -0.023902018
0.00093259662 -0.09406352 -0.024514098
0.0022111535 -0.09407109 -0.024913687
0.0035134107 -0.094074912 -0.025115628
0.0048316345 -0.094076291 -0.025188167
0.0061709657 -0.09407457 -0.025097329
0.0075384602 -0.09406887 -0.024796624
0.0089326948 -0.094059557 -0.024305005
0.010372959 -0.094044089 -0.02348854
0.011876896 -0.094020285 -0.022232074
0.013530225 -0.093976855 -0.01993962
-0.0050640479 -0.092617735 -0.018869538
-0.0039665997 -0.092660777 -0.020943958
-0.0027973205 -0.092689894 -0.022347171
-0.0015959963 -0.092712589 -0.023441095
-0.00035647303 -0.092728108 -0.024188954
0.00089986622 -0.092740349 -0.024778921
0.0021804944 -0.092748217 -0.025158186
0.0034826845 -0.092752345 -0.025357205
0.0048009157 -0.092753783 -0.025426287
0.0061400682 -0.092751853 -0.025333542
0.0075007975 -0.092746608 -0.02508064
0.0088915601 -0.092736863 -0.024611015
0.010321788 -0.092721365 -0.023864169
0.011822589 -0.092695668 -0.022625525
0.01342842 -0.092655048 -0.020667691
-0.006001316 -0.091198571 -0.01530828
-0.0051319972 -0.091292262 -0.019462664
-0.0040157959 -0.091335207 -0.021366674
-0.0028434843 -0.091366127 -0.02273776
-0.0016626343 -0.091394514 -0.023996491
-0.00044278055 -0.091414839 -0.024897654
0.00085433573 -0.091420472 -0.025147337
0.0021513104 -0.091425963 -0.025390942
0.003458105 -0.091429561 -0.025550444
0.0047720298 -0.091431811 -0.025650222
0.0060956702 -0.091432318 -0.025672991
0.0074346811 -0.09143021 -0.025579173
0.0088476092 -0.091415748 -0.024938006
0.010280073 -0.091398433 -0.024170358
0.011769086 -0.091372333 -0.023013134
0.013345733 -0.091332778 -0.021258969
-0.0061848238 -0.089892931 -0.016935665
-0.0051978827 -0.089968488 -0.020037729
-0.004070498 -0.090012312 -0.021836717
-0.0028776899 -0.090041302 -0.0230272
-0.0017290413 -0.090078399 -0.02454998
-0.00051878393 -0.090102062 -0.025521714
0.00080237538 -0.090103187 -0.025567729
0.0021287277 -0.090103261 -0.025571007
0.0034374371 -0.090106718 -0.025712926
0.0047382563 -0.090111569 -0.025912005
0.0060048923 -0.090122655 -0.026366968
0.0073054284 -0.0901272 -0.026553888
0.0088038146 -0.090095781 -0.025263805
0.010238759 -0.090076536 -0.024473686
0.01171615 -0.09005031 -0.023396749
0.013278604 -0.090009928 -0.021739144
0.015192643 -0.08991012 -0.017641384
-0.0062939823 -0.088575915 -0.017903704
-0.0052612796 -0.088646218 -0.020591039
-0.0041133985 -0.088688456 -0.022205371
-0.0029179156 -0.088718861 -0.023367602
-0.0016982183 -0.088743076 -0.024293084
-0.00047373772 -0.088765539 -0.025151808
0.00079345703 -0.08877831 -0.02563991
0.0020761937 -0.088787466 -0.025989968
0.0033771992 -0.088792607 -0.026186485
0.0046939179 -0.088794418 -0.026255745
0.0060199574 -0.088794313 -0.026251812
0.0073638484 -0.088790692 -0.02611335
0.0087971017 -0.088769779 -0.025313754
0.010203384 -0.088754594 -0.024733383
0.011668943 -0.088728569 -0.023738701
0.013216563 -0.088687867 -0.022182841
0.014992334 -0.08860606 -0.019055683
-0.0063811541 -0.087256946 -0.018676717
-0.0053169504 -0.087324068 -0.021076996
-0.0041584298 -0.087366447 -0.022592325
-0.0029530302 -0.087396435 -0.023664732
-0.0017275214 -0.087420836 -0.024537284
-0.00050614774 -0.087445468 -0.025417943
0.00075454265 -0.087460473 -0.025954742
0.002038449 -0.087469876 -0.026290972
0.0033350289 -0.087476231 -0.026518065
0.0046507642 -0.08747825 -0.026590247
0.0059820339 -0.087476894 -0.026541729
0.0073465779 -0.087468557 -0.026243586
0.0087743327 -0.087447286 -0.02548315
0.010159314 -0.087435365 -0.025056917
0.01162196 -0.087408029 -0.024079163
0.013150893 -0.087368123 -0.022652406
0.014854133 -0.087294832 -0.020031411
-0.0064511895 -0.085936233 -0.019297797
-0.0053681582 -0.086002506 -0.021523971
-0.0042074472 -0.086046852 -0.023013551
-0.0029951781 -0.086076856 -0.024021406
-0.0017628744 -0.086100988 -0.024831969
-0.00054880232 -0.086128861 -0.025768179
0.00071574003 -0.086143762 -0.026268739
0.0020044819 -0.086152487 -0.026561875
0.0032967925 -0.086160131 -0.026818652
0.0046098307 -0.086162776 -0.026907582
0.0059490651 -0.086159386 -0.026793737
0.0073186383 -0.086149283 -0.026454229
0.0087362751 -0.086128801 -0.025766272
0.010119207 -0.086116448 -0.025351364
0.011573046 -0.086089127 -0.024433512
0.013096727 -0.086047634 -0.023039836
0.014767513 -0.085976288 -0.020643074
-0.0074557289 -0.084503248 -0.016291875
-0.0065165088 -0.084616445 -0.019877035
-0.0054169446 -0.084681891 -0.021949787
-0.0042509511 -0.084727287 -0.023387391
-0.0030370504 -0.08475849 -0.024375696
-0.0018012151 -0.08478298 -0.02515151
-0.000582017 -0.084811062 -0.02604093
0.00067863613 -0.084827736 -0.026568968
0.0019695833 -0.084836304 -0.026840169
0.0032613277 -0.084844425 -0.027097482
0.0045760423 -0.084846698 -0.027169485
0.0059171319 -0.08484254 -0.027037878
0.0072863847 -0.084831797 -0.026697475
0.0086996779 -0.084810987 -0.026038546
0.010078236 -0.084798791 -0.025652129
0.011524819 -0.08477135 -0.024782974
0.013045765 -0.084727816 -0.023404319
0.01467935 -0.084660292 -0.021265585
-0.0075644627 -0.083192453 -0.017271776
-0.0065768585 -0.083297282 -0.020412225
-0.0054656789 -0.083362795 -0.022375125
-0.0042921305 -0.083408393 -0.023741264
-0.0030707866 -0.083439104 -0.024661202
-0.0018383265 -0.083465792 -0.025460798
-0.00061576813 -0.08349441 -0.026318092
0.00064670295 -0.083511405 -0.026827354
0.0019309074 -0.083522126 -0.027148623
0.0032238737 -0.083530247 -0.027391929
0.0045476928 -0.083530158 -0.027389247
0.0058841035 -0.083526857 -0.027290363
0.0072516799 -0.083515808 -0.026959199
0.0086629167 -0.083494201 -0.026312072
0.010037303 -0.083482206 -0.025952537
0.011477344 -0.083454646 -0.025126893
0.012995683 -0.083409101 -0.023762424
0.014597289 -0.0833451 -0.021845002
-0.007758528 -0.081912257 -0.019020755
-0.0066725463 -0.081991069 -0.021260817
-0.0055349842 -0.082051553 -0.022980053
-0.004357174 -0.082098 -0.024300177
-0.003131777 -0.08212886 -0.025177319
-0.0018929839 -0.082154863 -0.025916357
-0.00066602975 -0.08218351 -0.026730794
0.00059945136 -0.082200363 -0.027209658
0.0018779412 -0.082213074 -0.027571041
0.0031850114 -0.082217522 -0.027697463
0.0045046881 -0.082218409 -0.027722616
0.0058495924 -0.082212485 -0.027554233
0.0072041824 -0.082204148 -0.027317364
0.0086067989 -0.082183473 -0.026729543
0.0099735856 -0.082172595 -0.026420373
0.011433244 -0.082138322 -0.025446314
0.012930624 -0.082095452 -0.024227757
0.014527023 -0.082029074 -0.022341091
0.016524389 -0.081866011 -0.017706413
-0.014193989 -0.080480278 -0.016495485
-0.013220347 -0.080612011 -0.020057101
-0.011951193 -0.080635682 -0.020697135
-0.010271445 -0.080517098 -0.017490882
-0.0092053413 -0.080610357 -0.020012338
-0.008079052 -0.080680519 -0.021909434
-0.0069116279 -0.080734953 -0.023381013
-0.0057250634 -0.08078149 -0.024639148
-0.0045211688 -0.080821067 -0.025709409
-0.0032813326 -0.080848202 -0.026442844
-0.0020666942 -0.080882274 -0.027364213
-0.00083363056 -0.080909744 -0.028106946
0.00045742095 -0.080919065 -0.028358895
0.001741983 -0.080930024 -0.02865525
0.0030438378 -0.08093565 -0.028807301
0.0043558925 -0.08093819 -0.028876025
0.0057063624 -0.080929801 -0.02864917
0.0070762485 -0.080916226 -0.028282065
0.0084966347 -0.080889121 -0.027549166
0.0098406821 -0.080883451 -0.027396042
0.011287697 -0.080850348 -0.026500899
0.012763284 -0.080810532 -0.025424499
0.014299266 -0.080755964 -0.023949165
0.015965134 -0.080669276 -0.021605391
-0.015626982 -0.079171956 -0.017392892
-0.014730267 -0.079341218 -0.02175625
-0.013617106 -0.079423659 -0.023881573
-0.012497567 -0.079500936 -0.025873739
-0.011340365 -0.079562008 -0.027448077
-0.0101647 -0.079614498 -0.028801281
-0.0089723095 -0.079659432 -0.029959697
-0.0077604502 -0.079696238 -0.030908424
-0.0065466911 -0.079731233 -0.03181066
-0.0053126588 -0.079758391 -0.032510716
-0.0040769055 -0.079784155 -0.033174891
-0.0028163418 -0.07980112 -0.03361227
-0.0015515238 -0.07981623 -0.034001727
-0.00027859211 -0.079828352 -0.034314174
0.0010523051 -0.07982219 -0.034155387
0.0023726076 -0.079819433 -0.034084398
0.0036144555 -0.079840347 -0.034623522
0.0049202293 -0.079841726 -0.034659106
0.0062439144 -0.079837829 -0.034558613
0.0075847507 -0.079829089 -0.034333248
0.0089414045 -0.079816073 -0.033997733
0.010320373 -0.079797126 -0.033509333
0.011709213 -0.079775929 -0.032962877
0.013116777 -0.07975015 -0.032298226
0.014600523 -0.079704404 -0.031119067
0.016072363 -0.079662986 -0.03005125
0.017585143 -0.079611778 -0.028731186
0.019164644 -0.079544425 -0.026994962
0.020809978 -0.079461738 -0.024863262
0.022889033 -0.079270646 -0.019937117
-0.015743181 -0.077877551 -0.018553335
-0.014778957 -0.078026965 -0.022233922
-0.013698652 -0.07812576 -0.02466758
-0.012576692 -0.078205153 -0.026623387
-0.01141154 -0.078265548 -0.028111059
-0.010234952 -0.078319691 -0.029444832
-0.0090426356 -0.078366324 -0.030593533
-0.0078355074 -0.078406125 -0.031574029
-0.0066144615 -0.07843975 -0.032402236
-0.0053868517 -0.078470036 -0.033148307
-0.0041551962 -0.078498006 -0.033837397
-0.0029039308 -0.078518502 -0.034342248
-0.00165575 -0.078539416 -0.03485753
-0.00038422644 -0.07855206 -0.035168905
0.00090203434 -0.078559563 -0.035353798
0.0021917969 -0.078565739 -0.03550585
0.0034900382 -0.07856907 -0.035587985
0.0047961995 -0.078569859 -0.035607297
0.0061218441 -0.078564659 -0.035479147
0.0074565113 -0.078556865 -0.03528728
0.0088020638 -0.078546047 -0.035020668
0.010160334 -0.078531757 -0.034668822
0.011523999 -0.078516282 -0.034287531
0.012938045 -0.078486755 -0.033560175
0.014362395 -0.078455053 -0.032779295
0.01582025 -0.078414775 -0.031787116
0.017307237 -0.078367442 -0.03062119
0.018833824 -0.07831046 -0.0292175
0.020432815 -0.078235336 -0.027366776
0.022188574 -0.078120239 -0.024531621
-0.01577279 -0.076550663 -0.018848974
-0.014792301 -0.076699734 -0.022364814
-0.013701104 -0.076798372 -0.024691243
-0.012582026 -0.076882437 -0.026673932
-0.011423051 -0.07694792 -0.028218348
-0.010249659 -0.07700564 -0.029579598
-0.0090558603 -0.077053681 -0.030712683
-0.0078486726 -0.077095151 -0.031690795
-0.0066282749 -0.077130422 -0.032522757
-0.0053957179 -0.07716018 -0.033224482
-0.0041559786 -0.077186443 -0.033844013
-0.0029151961 -0.077211551 -0.034436185
-0.0016617179 -0.077231497 -0.034906525
-0.0004003495 -0.077248149 -0.035299379
0.00088171661 -0.077257328 -0.035515804
0.0021711811 -0.077263772 -0.035667915
0.0034610108 -0.077269927 -0.035812993
0.0047707185 -0.077269465 -0.035802085
0.0060984641 -0.077263251 -0.035655458
0.0074320361 -0.077255361 -0.035469372
0.0087815523 -0.077242717 -0.035171229
0.010135278 -0.077229112 -0.034850378
0.011511147 -0.077209145 -0.034379382
0.012902088 -0.077185169 -0.033814032
0.014326729 -0.077151842 -0.033027966
0.015767105 -0.077114746 -0.032153029
0.017254934 -0.077064879 -0.030976851
0.018790193 -0.077002712 -0.029510576
0.020381294 -0.076926313 -0.027708787
0.022107683 -0.0768141 -0.025062162
-0.015787937 -0.075218469 -0.019000251
-0.014789328 -0.075365901 -0.022335667
-0.013685822 -0.075463519 -0.0245439
-0.012579367 -0.075556554 -0.026648719
-0.011427313 -0.075627692 -0.028258044
-0.010252155 -0.075687125 -0.029602487
-0.009056516 -0.075736456 -0.030718584
-0.0078513697 -0.075780489 -0.031714696
-0.0066297427 -0.075816773 -0.032535572
-0.0053893924 -0.075844824 -0.033170123
-0.004148908 -0.075871967 -0.03378417
-0.0029096082 -0.075898722 -0.034389574
-0.0016554743 -0.075919315 -0.034855265
-0.00039719045 -0.075937815 -0.035273809
0.00088695437 -0.075946659 -0.035474021
0.0021744221 -0.075954109 -0.035642464
0.0034696758 -0.075958677 -0.035745818
0.0047838166 -0.075956739 -0.035701949
0.0061034486 -0.075953022 -0.035617847
0.0074426606 -0.075942963 -0.035390336
0.0087865666 -0.075931653 -0.035134394
0.010140255 -0.075917497 -0.034814317
0.011515707 -0.075896837 -0.034346778
0.012907907 -0.075871468 -0.033772964
0.014328837 -0.075837888 -0.033013243
0.015774474 -0.075797617 -0.032102305
0.017261803 -0.075745806 -0.03093018
0.018803529 -0.075679094 -0.02942099
0.020388305 -0.075601354 -0.027662236
0.022113994 -0.075484596 -0.025020797
-0.015779808 -0.073876113 -0.018919069
-0.014784999 -0.074031353 -0.022293229
-0.013665773 -0.074126013 -0.024350662
-0.012564465 -0.074225247 -0.026507515
-0.011428587 -0.074306324 -0.028269906
-0.010253459 -0.074368186 -0.029614408
-0.0090559945 -0.074418768 -0.030713875
-0.0078540519 -0.074465908 -0.031738479
-0.0066223294 -0.074499607 -0.032470901
-0.0053748116 -0.074526012 -0.033044834
-0.0041329861 -0.074553825 -0.033649404
-0.002897881 -0.074583381 -0.034291822
-0.0016548783 -0.074609078 -0.034850378
-0.00039342791 -0.074627161 -0.035243351
0.0008879751 -0.074637398 -0.035465915
0.002174519 -0.074645489 -0.035641689
0.0034725443 -0.074649259 -0.035723586
0.004785493 -0.074647665 -0.035689134
0.0061123446 -0.074641302 -0.035550792
0.0074678585 -0.074625298 -0.035202879
0.008807458 -0.074615091 -0.034981031
0.010146134 -0.074605465 -0.034771699
0.011517547 -0.074585304 -0.034333605
0.012913704 -0.074557625 -0.033732016
0.014331669 -0.07452365 -0.032993514
0.015782773 -0.074480012 -0.032045085
0.017276213 -0.074424207 -0.03083213
0.018849604 -0.074345045 -0.029111464
0.020402908 -0.074273914 -0.027565319
0.022120848 -0.074154779 -0.024975855
-0.015759185 -0.072527513 -0.018713135
-0.0147743 -0.072693661 -0.022188265
-0.013667762 -0.072797969 -0.024369795
-0.012558572 -0.072897509 -0.026451666
-0.011425011 -0.072982848 -0.028236587
-0.010247312 -0.073046029 -0.029558081
-0.0090526789 -0.073099859 -0.030684013
-0.007853128 -0.07314989 -0.031730313
-0.006614089 -0.073181853 -0.032398958
-0.0053695366 -0.073210567 -0.032999475
-0.0041337684 -0.073241957 -0.03365602
-0.0028952882 -0.073271327 -0.034270246
-0.0016563535 -0.073299646 -0.034862477
-0.00039046258 -0.073316708 -0.03521939
0.00089009106 -0.07332769 -0.035449047
0.0021737441 -0.073337182 -0.035647769
0.0034754053 -0.073339753 -0.035701413
0.0047877356 -0.073338345 -0.035671968
0.006126903 -0.073327303 -0.035441